ply
format ascii 1.0
comment VCGLIB generated
element vertex 746
property float x
property float y
property float z
property float nx
property float ny
property float nz
property uchar red
property uchar green
property uchar blue
property uchar alpha
element face 0
property list uchar int vertex_indices
end_header
-36.3444 155.398 37.9989 3.05599 2.15772 4.98391 87 62 48 255 
-96.0761 122.797 56.2033 -3.21108 0.404401 1.91334 34 28 24 255 
10.961 91.9277 4.14914 5.55116 1.49341 2.51996 101 74 61 255 
5.10297 110.669 0.371888 6.00987 1.17242 1.32182 69 49 39 255 
1.08139 133.122 10.8084 4.90949 -1.66922 3.13408 77 55 44 254 
-6.05639 88.7096 45.4118 5.6372 2.35621 -1.33832 61 38 31 255 
14.4924 49.7683 -2.4238 5.58698 -2.25157 1.6212 107 88 73 255 
-4.64133 117.586 13.9869 1.27942 2.90954 3.06501 20 14 11 255 
-3.648 124.93 11.1409 4.11053 -0.436817 4.54773 62 70 75 255 
-10.9328 94.8548 43.171 5.57455 2.72408 -0.980125 63 41 33 255 
2.28295 38.061 24.363 5.51492 1.32858 2.63703 79 53 39 255 
-102.598 108.441 49.9576 0.286081 -5.27888 3.23718 71 54 43 255 
12.2788 102.762 -24.0412 5.99436 1.86402 -0.0431269 74 54 44 255 
-78.7063 13.3494 43.1455 -0.432867 -1.86628 5.11859 89 69 55 255 
-37.7727 41.6378 58.462 -1.7866 -0.068787 5.99768 95 64 52 255 
-22.5351 56.9041 59.3339 2.15889 -2.05078 5.49233 111 69 58 255 
-27.8693 175.931 18.4868 3.63852 3.6044 3.63454 82 57 44 255 
15.1943 91.759 -22.3928 6.05896 1.60022 -0.387191 70 50 41 255 
-88.3854 132.293 58.3486 0.496759 1.06181 5.13961 14 10 8 255 
17.0342 69.718 -4.95641 6.17376 -0.0225751 1.14228 108 82 67 255 
-90.7766 127.464 58.3223 0.925554 -2.8959 4.6663 23 17 14 254 
-1.83575 158.465 -18.043 5.76875 2.38552 0.224301 59 41 32 255 
11.1072 128.432 -12.8502 4.05834 1.5094 1.2158 33 23 19 255 
-13.8279 104.514 28.2239 4.59035 3.81565 1.90582 70 47 37 255 
-15.1659 109.871 22.6721 3.65567 2.2835 4.52901 57 39 32 255 
14.3382 42.4666 -10.1167 5.89027 -0.763634 -0.365668 78 66 56 255 
-88.9164 63.2061 60.49 -1.42737 -0.4256 6.10228 120 89 71 255 
-71.0534 40.8503 56.5661 -0.337918 -1.59988 6.01451 108 81 65 255 
-70.4899 82.9403 59.0174 0.479739 2.38846 5.78884 99 69 56 255 
-24.8461 93.7589 68.7504 -3.09294 2.53205 4.84396 64 42 33 255 
-25.5192 -8.40016 28.4892 1.89405 -5.83992 0.990609 62 49 40 255 
-101.486 119.398 54.6257 -3.81633 -0.62681 3.66172 31 23 19 255 
1.74168 3.18869 18.398 4.59847 -3.42059 -0.577091 37 29 23 255 
-65.7311 152.755 48.6643 -0.187735 4.24925 4.61627 54 35 26 255 
-11.8817 114.879 19.3292 1.83583 4.01285 4.29622 41 25 19 255 
-12.9323 100.667 48.5891 5.56559 2.83726 -0.646059 68 46 37 255 
-36.0299 32.5161 55.588 -0.0827506 -1.67722 6.05271 117 83 63 255 
17.6173 72.5496 -9.64382 6.261 0.249001 0.314201 99 75 61 255 
-20.6249 161.441 22.4574 3.55643 3.67294 3.6223 73 49 36 255 
-25.6516 80.8404 65.0191 0.797553 -3.83835 1.83369 19 12 10 255 
-95.0988 138.048 53.3537 -2.08768 4.52798 3.80175 45 30 21 255 
6.45396 126.547 -1.69668 5.04015 -2.78547 2.44117 68 47 36 255 
-110.595 128.95 42.3613 -3.94248 0.891353 4.78653 52 33 24 255 
-102.252 107.881 49.2461 0.329788 -2.8735 5.43291 67 50 39 255 
-26.4737 159.188 29.2588 2.88139 3.69247 4.15036 69 47 34 255 
-114.92 113.983 40.1649 -4.22637 0.494024 4.61449 60 40 29 255 
-98.4431 82.8426 55.0995 -2.59669 1.54936 5.50499 78 53 41 255 
-90.16 37.78 53.2899 -1.84413 -2.6906 5.25393 107 90 76 255 
11.1676 104.788 -17.9475 5.21061 3.39427 0.535527 80 59 46 255 
1.03679 18.2291 38.5805 5.42732 1.68814 2.49665 68 54 44 255 
17.161 72.9289 -5.87745 6.19916 0.273299 0.96247 111 86 71 254 
-88.2129 119.803 56.7749 0.544956 -2.93753 5.43831 96 70 55 255 
-45.3438 110.28 46.176 -3.16268 2.561 4.7734 67 48 38 255 
-55.5337 150.941 49.5375 0.950571 4.07562 4.67794 66 45 34 255 
5.84369 15.5107 20.648 5.37878 1.92238 0.539502 54 42 34 255 
-44.9401 45.3048 54.8056 -0.718052 -1.448 4.94677 33 18 15 255 
-25.258 109.189 57.1105 0.539624 4.45706 4.39282 56 34 26 255 
-10.7027 5.25303 46.5556 2.99913 -3.70458 3.68574 68 58 48 255 
-50.573 24.4073 53.291 -0.260371 -0.948963 6.18981 103 76 60 255 
-5.28924 165.096 -13.9526 5.39938 3.10173 0.807927 58 39 29 254 
-28.6262 43.4154 60.1523 -0.768514 0.796341 6.17628 83 49 42 255 
-17.2555 166.7 12.8295 4.65984 3.08614 2.86127 78 55 41 255 
16.1928 88.078 -19.5391 6.16895 0.993383 -0.579633 76 55 44 255 
-34.022 120.718 48.7791 -0.724548 2.7952 5.56764 81 55 41 255 
-11.4551 -4.98208 13.1664 2.25419 -5.82312 -0.0635475 41 31 25 255 
-43.0608 112.826 46.8227 -3.77922 1.41792 4.80736 80 56 43 255 
-96.9475 169.52 34.4248 -2.0258 2.38057 5.44531 50 35 25 255 
-90.4814 165.764 39.2278 -2.17262 2.90488 5.12071 59 39 28 255 
12.4627 94.1708 -1.5681 5.73928 1.75799 1.81776 89 61 48 255 
4.74432 121.679 -3.35388 5.26274 -2.57326 2.23722 41 26 20 255 
-7.17585 87.4964 57.5843 5.84198 -1.58847 1.54454 116 84 69 255 
5.71503 20.1912 12.5514 6.22731 0.0121322 0.207448 65 49 38 255 
0.685962 33.1789 29.3257 5.75408 0.498718 2.46673 82 54 39 255 
7.22326 39.1913 12.1601 5.40849 -0.672886 2.81445 75 51 39 255 
14.1342 41.4662 -11.272 5.59822 -2.40411 0.749226 87 74 62 255 
5.47374 145.923 2.80673 3.8268 3.09474 0.180626 16 12 10 255 
-55.891 22.4279 52.0701 -0.957148 -1.02826 5.9648 89 66 52 254 
-71.7288 45.5849 58.2442 -0.745716 -2.37288 5.72949 134 102 83 255 
1.95802 148.196 -20.6731 6.04267 1.63712 -0.439618 56 39 30 254 
4.0292 144.177 7.30348 3.85174 1.06625 1.98115 11 8 6 255 
-16.9762 141.85 33.8888 2.16753 3.50075 4.32679 89 68 55 255 
-23.679 81.9247 66.9499 -0.901747 -5.54585 2.78121 100 76 63 255 
-96.6654 98.811 49.4088 -2.35324 0.95154 5.74288 60 41 31 255 
2.60597 112.379 8.27065 5.63762 -0.498121 2.7062 82 58 46 255 
-1.57199 67.927 31.7819 5.45021 2.78138 1.32717 68 51 40 255 
-72.3154 74.128 61.8325 0.154075 1.15761 6.166 118 84 69 255 
-101.527 32.8034 45.3291 -2.98616 -3.19698 4.37918 87 69 57 255 
-13.1121 75.2123 45.3819 5.95949 0.640716 1.4414 66 43 34 255 
-22.8355 44.398 59.8174 1.64659 0.942681 5.95438 91 52 45 255 
16.227 64.4866 -1.57775 6.15145 -0.385333 1.20194 119 91 74 255 
-47.2762 166.745 36.923 2.61844 2.82193 4.96322 92 64 48 255 
-115.793 116.933 39.1135 -4.35265 0.457893 4.50572 64 43 33 255 
-116.467 88.4469 41.6295 -4.20606 1.09312 4.5156 63 40 30 255 
-111.217 124.663 42.3027 -4.22655 0.609175 4.56885 57 38 28 255 
2.2971 3.5816 27.8823 4.95408 -3.36997 1.43293 54 45 37 255 
-106.605 148.16 39.8704 -2.49882 1.9989 5.36407 48 33 24 255 
-87.4512 124.992 58.3647 1.14779 0.330363 5.39005 57 44 37 255 
-52.6458 79.2637 57.5304 2.66532 0.105724 5.67826 134 95 76 255 
6.98584 64.4706 17.3756 4.87935 -0.820624 3.83456 114 80 62 255 
-10.9813 -5.027 15.2382 2.37052 -5.75401 -0.494734 45 34 27 255 
3.44527 97.2384 12.322 4.49808 2.80688 3.36608 81 56 45 255 
-27.8924 101.885 61.7218 -2.59805 3.17287 4.75828 59 38 29 255 
-16.7405 177.283 -1.54231 4.92766 3.52146 1.66658 74 52 40 255 
-38.0676 65.3033 58.9654 -1.23257 2.98018 5.36961 68 49 38 255 
-5.53806 45.6653 46.487 5.56854 1.22784 2.62467 75 45 38 255 
-13.9738 78.8461 57.8315 4.7934 -4.01009 -0.470263 90 62 51 255 
-58.618 84.355 57.3494 0.588424 2.29208 5.81623 99 67 52 255 
-52.6541 18.7774 51.8562 -1.17188 -2.6742 5.53449 86 64 50 255 
-72.1261 118.256 53.2775 -1.69242 -3.13464 3.98194 22 16 12 255 
-0.869495 0.0838139 22.7258 3.91732 -4.68093 -0.7225 40 31 25 255 
-13.6812 6.07206 49.7183 2.89855 -4.53836 2.8878 74 62 53 255 
-8.88732 86.1019 36.1365 6.22631 0.342544 -0.483069 76 49 39 255 
-42.3338 70.2327 55.6119 -0.264007 2.90189 5.52368 91 60 46 255 
-107.656 80.5757 50.6126 -3.40928 1.06395 5.12904 70 50 40 255 
-5.39515 110.187 16.5911 2.8944 -2.8379 4.79372 80 54 43 254 
5.60731 147.406 -5.01519 4.9901 2.15401 -2.28334 40 28 22 255 
-46.0903 116.168 44.2955 -3.45973 -1.0216 5.13148 87 61 47 255 
-1.24441 47.5539 27.0749 5.69742 2.32373 1.22572 76 53 40 255 
-23.5329 118.63 34.6392 6.17904 0.614949 -0.922153 73 51 41 255 
-5.21323 72.6111 33.612 4.91861 3.21095 2.2206 88 61 48 255 
-6.41609 90.319 29.6747 4.65721 1.73311 3.83891 103 68 52 255 
-48.4994 133.271 53.2485 -0.0523064 -1.5376 4.92989 45 33 26 255 
8.9428 122.883 -25.3536 5.67987 0.522815 -2.59799 56 40 32 255 
-3.18164 -0.273799 12.8937 2.91661 -5.24016 -1.69193 39 31 24 255 
5.44888 11.9345 25.0801 5.30225 0.576279 0.225961 49 40 33 255 
0.574036 86.3253 23.5619 4.53456 1.41181 4.10543 112 78 63 255 
-21.2217 126.9 32.4814 5.61299 -2.77429 0.109508 93 67 51 255 
-23.8144 170.415 18.5489 4.33248 2.40517 3.86208 96 70 54 255 
-30.3888 -10.7163 23.4043 1.58171 -6.05478 0.459099 59 47 37 255 
17.5436 68.9208 -8.60797 6.24576 -0.0456785 0.645782 104 78 65 255 
1.18197 25.1059 32.1481 5.40052 2.09409 2.41722 69 49 37 255 
-86.7638 173.221 36.4871 -2.48813 3.6866 4.20466 51 35 26 255 
-19.6324 118.481 18.9819 4.83825 -0.747395 1.98912 31 20 17 255 
-65.2215 125.661 51.9369 2.2629 -1.98446 5.50817 95 65 51 254 
-4.63749 16.0093 47.242 4.54139 -0.256661 4.22412 90 72 60 255 
-34.9442 181.064 19.9038 3.57512 2.35005 3.81253 62 44 34 255 
-111.489 113.471 44.7793 -5.84076 -0.126847 2.11975 61 41 31 255 
-110.338 72.4081 49.3249 -3.89963 -0.245068 4.91923 80 55 43 254 
13.1612 49.2166 1.7791 5.9317 -0.961091 1.80588 100 77 62 255 
-8.75113 57.3993 48.7048 4.18194 -3.20973 3.41222 83 51 43 255 
4.42235 12.7107 9.38975 5.59569 -1.41703 -1.49454 55 45 36 255 
-105.761 117.984 49.6654 -2.83104 0.28959 3.77925 45 32 25 255 
-86.0561 139.293 57.0169 -2.60405 4.48061 3.27538 32 22 17 255 
-12.3093 0.890598 41.4809 3.09501 -3.48237 3.27535 59 50 41 255 
-12.6185 101.077 31.9465 5.42514 2.94981 1.14265 75 50 40 255 
-5.02689 143.15 21.9355 4.30511 0.600228 1.19919 6 5 4 255 
-39.2815 164.701 33.7422 2.50856 3.43656 4.61583 86 59 43 255 
-18.9726 41.5219 57.8856 1.9318 -3.60068 4.74491 122 88 72 255 
4.79588 78.7639 20.4982 5.01107 0.358175 3.77091 120 87 70 255 
5.50432 16.1687 16.3256 6.08132 -1.23777 -0.672741 55 44 34 254 
5.79791 81.4642 18.4933 4.99264 1.24257 3.54153 117 83 67 255 
-49.3905 101.432 49.9011 -2.08014 3.42393 4.83898 63 42 32 255 
-86.1309 117.112 54.3277 1.44109 -4.53657 4.08959 83 59 47 255 
-29.0063 120.228 47.9982 2.36599 4.03397 4.12387 75 52 40 255 
3.30084 10.9575 33.7117 5.40204 -2.02828 2.2467 66 53 44 255 
-50.8336 0.276858 48.7626 -2.36488 -2.20481 4.85566 56 45 36 255 
-14.6686 19.7643 53.094 3.78119 1.52732 4.7239 70 50 38 255 
9.04922 97.9039 3.05552 5.00214 2.71254 2.65114 90 63 49 255 
-94.3006 81.9241 56.9918 -1.96313 2.10785 5.57467 84 57 45 255 
-55.8015 86.1655 56.4403 0.0398575 2.27815 5.84886 81 54 42 255 
-35.0345 70.0297 56.9566 -1.62762 3.18712 5.14596 72 51 39 255 
-77.3588 99.0202 55.0308 1.06171 -1.47531 6.01269 114 81 66 255 
15.9729 67.9092 -0.226083 6.08024 0.0666034 1.57054 122 95 78 255 
2.18147 149.74 -9.77374 5.57667 2.8504 -0.0573018 50 34 25 255 
-27.6204 168.108 23.7312 3.84574 2.6195 4.20906 98 70 53 255 
-24.4644 22.8984 54.8467 -0.797658 3.32679 5.15742 64 46 36 255 
-2.25196 46.1351 37.1492 6.15488 0.810553 0.863945 89 64 52 255 
-11.2667 146.368 28.1743 3.27681 4.47988 1.26091 64 49 40 255 
7.50722 141.249 2.31373 4.8778 -0.936664 -0.711125 8 6 4 255 
-17.0391 75.4701 58.9134 4.36963 -3.79524 2.43298 113 79 62 255 
-18.5639 160.754 21.0252 3.92594 3.89945 2.95235 66 44 32 254 
-106.24 153.129 37.9461 -2.6737 2.44089 5.12686 51 34 25 255 
-22.9955 50.8307 55.7448 0.467503 -1.7393 5.23728 58 33 30 255 
-6.1623 -3.02266 20.8821 2.88344 -5.34806 0.59093 43 33 27 255 
13.7127 79.4975 5.37105 5.65904 0.818392 2.58688 112 86 72 255 
-29.199 76.9578 58.8999 -2.57371 -1.78234 5.3844 100 66 54 255 
-54.566 14.4924 50.4115 -1.84095 -0.148551 5.94511 75 59 47 255 
-12.5677 -1.14287 37.1463 1.5702 -5.76282 1.70575 56 44 36 255 
-113.431 110.271 41.8345 -4.40641 0.0655511 4.33422 62 42 32 255 
-50.5974 -10.603 32.9626 -0.732099 -5.98559 1.16393 46 37 29 255 
-50.7285 103.549 47.6746 -2.16289 3.63477 4.63976 57 39 30 255 
-33.4462 163.407 31.098 3.03256 3.23364 4.44964 89 61 46 255 
-8.2473 154.025 14.9705 4.5784 3.77468 2.04721 69 49 38 255 
-37.9554 61.9651 60.5204 -0.610855 2.12133 5.71433 69 52 42 255 
-91.8829 140.924 52.0362 -2.79099 4.38292 3.51642 50 33 24 255 
16.6176 54.2681 -10.6708 6.13316 -0.259298 1.06806 93 74 62 255 
-31.5092 -6.77656 47.1887 3.06375 -4.86064 2.30661 63 50 41 254 
-95.3688 39.6804 51.7587 -2.92892 -1.20957 4.95852 97 77 63 255 
12.365 45.4496 1.98737 5.7768 -1.2432 2.12169 103 80 65 255 
-3.34246 41.2197 39.6642 5.82848 -1.10033 2.06777 102 78 63 255 
-12.8668 -2.75642 33.6958 0.379565 -5.36206 2.73478 49 39 31 255 
-95.4357 163.292 38.4885 -2.65118 2.67043 5.00996 56 37 27 255 
-92.9236 70.9262 59.4841 -1.63937 0.221589 6.04541 99 71 57 255 
-117.231 80.0884 42.545 -4.51692 0.506609 4.33039 66 43 33 255 
3.42404 52.8454 20.7691 4.05533 -1.87153 3.95977 75 53 38 254 
-31.5373 140.676 43.4773 2.79833 1.06273 5.49868 121 86 67 255 
-20.8672 160.478 23.6957 3.25642 3.94625 3.64194 67 44 32 255 
6.15772 122.607 -5.6743 5.20484 -2.63622 2.32299 58 38 29 255 
-88.6115 107.97 52.0779 0.0146779 -4.14051 4.16793 37 23 18 255 
-0.937812 28.6088 34.1514 5.39148 1.19685 2.95044 76 50 37 255 
-42.0868 64.1831 59.0459 -0.769504 2.21873 5.79939 72 52 41 255 
-4.71301 70.3587 35.7527 4.98367 2.75766 2.62317 81 60 49 255 
-91.9598 28.1207 47.8848 -1.35182 -3.22633 5.02261 102 83 68 255 
-71.2997 13.5659 45.1979 -1.38452 -2.75742 5.44892 112 87 70 255 
-33.1578 88.1128 65.5057 -3.43351 2.59674 4.57063 64 39 31 255 
-38.4392 22.8792 54.1569 -0.442668 -0.737429 6.20199 103 71 53 255 
4.02047 32.1866 20.5754 6.08671 0.354446 1.43474 76 55 41 255 
-32.0519 36.458 57.7343 -0.43104 -2.5602 5.57929 105 83 68 255 
-13.3687 72.3927 50.1205 5.52979 1.38557 2.29429 72 53 43 255 
-66.0673 171.131 40.0693 0.656939 3.29971 5.30431 77 54 40 255 
-69.2216 166.673 42.5599 0.344579 2.41748 5.78609 84 57 42 255 
-94.9137 127.244 58.4873 -2.59945 0.771036 4.12135 19 14 12 255 
-78.0555 54.8594 61.437 -0.218418 -1.39468 6.12052 153 120 97 255 
7.17103 92.191 11.0746 4.98772 2.49779 2.86245 94 64 52 255 
12.0185 42.1461 1.51034 5.43501 -1.42548 2.04497 98 77 63 255 
-50.2163 135.242 54.5758 1.93549 0.110213 4.73525 34 24 19 255 
-87.5105 58.1923 60.333 -1.63742 -1.06004 5.96062 117 89 73 255 
-41.9461 75.3172 56.6763 -2.44183 -3.93463 4.20448 97 62 49 255 
-61.6205 42.8502 56.7325 1.7258 -1.81955 5.73253 93 69 55 255 
-26.2859 34.3096 55.0797 1.92097 -4.0499 4.28764 108 80 62 255 
-5.84992 57.8828 45.7919 4.32377 -2.70305 3.65274 92 56 47 255 
-27.2722 131.066 41.363 2.23856 -0.227572 5.84157 114 84 66 255 
-79.8509 47.4865 59.0221 0.379976 -2.06627 5.89115 138 112 92 255 
-19.4222 -6.25281 28.9508 1.80272 -5.87095 1.28446 67 54 43 255 
-36.0475 162.756 33.2246 2.85249 3.25917 4.54203 91 65 49 255 
9.45759 96.6485 3.525 5.1428 2.31996 2.73934 92 65 52 255 
-103.767 147.086 41.7889 -3.05887 2.28653 4.94661 50 33 24 255 
-17.4896 108.685 44.3321 5.59443 2.82764 -0.421712 71 51 42 255 
-16.2553 106.136 40.6834 5.52663 2.9847 0.0467615 73 50 40 255 
-73.371 7.18844 41.143 -1.77903 -2.50393 5.43105 94 75 59 255 
-4.61973 56.9231 43.4306 4.53046 -3.08956 3.03918 90 58 49 255 
-5.26774 86.2768 47.6547 6.23289 -0.216597 0.253522 93 61 52 255 
-21.2708 178.812 6.17927 4.36408 3.86496 2.33721 76 55 42 254 
-8.86417 92.6447 45.0603 4.44614 3.94902 -1.93025 46 30 24 255 
-93.6351 168.822 36.1157 -2.03489 3.03197 5.08369 54 37 27 255 
7.17552 84.1013 15.6867 5.01212 1.62128 3.40568 120 90 75 255 
-9.57827 109.637 18.6019 3.58012 -0.174878 5.12085 65 43 36 255 
-50.0893 67.1217 57.3582 0.549931 2.50678 5.72395 100 66 50 254 
11.4652 100.244 -6.65622 5.68433 2.3582 1.24719 82 59 48 255 
-34.6435 131.586 45.8916 2.81329 0.578831 5.55612 133 98 78 255 
15.094 44.5835 -13.7858 6.21204 -0.911184 -0.0969343 86 70 58 255 
13.8005 97.2483 -24.8522 6.05097 1.4517 -0.11906 65 46 37 255 
-87.2114 170.062 38.0472 -1.92785 2.97859 5.18459 60 41 31 255 
-17.9253 74.9382 59.4244 3.61027 -3.8603 3.38514 130 92 74 255 
-32.4965 163.365 30.4584 3.23228 3.11559 4.38831 88 62 46 254 
-1.94292 14.5564 43.7025 4.78373 -1.11577 3.72696 80 65 54 255 
-46.564 137.37 52.0178 3.88125 1.98212 4.36586 107 79 63 255 
-12.0032 140.22 30.489 3.99223 -0.498746 3.60915 12 9 7 255 
-84.0479 161.254 42.8626 -1.03099 3.05043 5.38879 62 41 29 255 
-111.699 62.878 46.7591 -4.0125 -1.09618 4.68751 84 62 51 255 
-7.91369 92.5277 61.2341 5.80086 2.39017 -0.0877315 78 55 45 254 
-108.038 63.7895 50.311 -3.7765 -0.963545 4.9194 91 67 54 255 
-22.3057 165.043 20.8992 3.651 3.33359 3.87143 82 57 43 254 
-20.8065 156.676 28.0661 2.92308 4.14058 3.70751 60 39 28 255 
5.61572 99.1388 7.42819 4.72063 2.66852 3.14257 83 57 46 255 
-76.5598 147.441 51.426 -1.14119 2.63132 5.57794 57 38 27 255 
-58.1399 74.223 59.9452 1.44464 0.979443 5.99821 137 96 77 255 
13.0012 86.5725 3.07173 5.78211 1.22987 2.10682 113 84 69 255 
-112.793 134.636 39.3851 -3.7777 0.79549 4.94945 58 38 28 255 
-36.6332 134.075 47.0184 3.66802 -0.178204 5.02977 129 91 73 255 
-22.1038 139.25 38.1668 4.10484 1.74538 4.3259 114 85 68 255 
-66.8198 100.748 51.6643 3.08966 -1.90706 5.12039 94 66 53 255 
-14.383 117.324 17.8344 -0.239123 4.82888 3.88507 30 20 15 255 
-7.98555 93.0439 48.8514 4.847 3.89081 -0.907536 54 35 28 254 
-18.3146 33.808 49.7059 3.22381 -3.28729 4.20342 68 48 38 255 
-57.32 10.8964 48.5582 -2.34231 -0.880808 5.56513 72 55 42 255 
0.675083 150.655 1.22443 3.16533 5.27772 1.18673 55 39 29 255 
-107.475 48.222 46.5933 -4.05616 -1.99262 4.32325 85 64 51 255 
-12.8747 1.56683 43.3027 2.75137 -4.69241 2.20248 55 47 38 255 
-38.9957 33.4438 55.7118 -0.233725 -1.6492 6.04444 109 77 58 255 
-33.1901 94.2645 62.0271 -3.82993 2.08106 4.52263 69 46 35 255 
-61.1718 33.5994 54.6024 0.486372 -1.66756 6.03024 123 90 69 255 
3.7748 68.8743 21.5904 4.69285 -0.175161 4.15265 107 73 56 255 
-20.2939 128.709 33.9058 3.80462 -4.1116 1.92852 71 52 40 255 
2.96468 144.109 13.533 1.52562 1.9631 2.52595 10 7 5 255 
-91.0189 120.599 56.9546 0.502211 -2.52295 5.13441 79 61 51 255 
-11.7712 41.2359 51.9737 3.1572 -4.62027 2.84718 104 78 63 255 
15.8975 83.1529 -25.8655 6.09485 0.61543 -1.37079 69 51 42 254 
-84.2305 80.1381 59.7313 -0.682939 1.09451 6.10195 96 67 54 255 
-15.2934 163.163 13.5435 4.53024 3.321 2.76271 73 49 36 255 
-8.11393 165.936 -5.54687 5.11738 3.2971 1.54462 66 44 33 255 
10.0802 83.2525 11.4941 5.39942 1.0821 2.99268 120 89 73 255 
-47.5635 11.4208 52.6388 -2.14517 -0.0842127 5.67343 58 46 36 255 
-2.84664 -0.533342 14.8256 3.99422 -4.53296 -1.08085 38 29 24 255 
-43.8975 66.487 57.7813 -0.170606 2.65403 5.68677 85 60 47 254 
-27.0895 -9.09849 27.2045 2.28322 -5.66553 1.34225 59 47 39 255 
-42.6103 -8.55783 45.4662 -1.62383 -5.9649 0.887156 54 42 34 255 
-28.4963 111.652 55.1236 -0.553227 3.73702 5.0002 59 38 28 255 
-7.09496 162.734 -2.1331 4.96819 3.3655 1.84624 64 43 31 255 
-60.9647 20.4035 50.365 -1.95502 -1.34214 5.79345 104 80 64 255 
-100.033 69.7758 56.419 -2.98176 0.0728017 5.52965 96 68 53 255 
-76.0149 51.6188 60.6614 0.050392 -1.84581 6.00134 146 114 92 255 
-22.6645 128.795 39.0053 4.47142 -1.717 3.26193 83 63 50 255 
5.97268 138.291 8.18161 -0.226758 2.57917 4.60263 18 13 11 255 
-8.41396 78.2653 33.8728 5.28735 1.52928 3.01211 100 68 53 255 
-47.9505 158.222 42.0691 1.75007 3.14042 5.15114 82 56 41 255 
-36.7206 124.039 47.7434 0.442454 1.27391 6.10743 113 86 68 255 
-60.9055 113.416 42.7579 -0.474102 -4.3772 4.44041 47 30 24 255 
-2.46279 116.833 12.5563 1.99302 2.99903 2.72356 40 29 23 255 
-67.0748 78.8438 60.33 0.354713 1.67324 6.02118 112 79 65 255 
-36.8452 7.51187 56.0593 -1.22722 0.861498 5.86241 67 56 45 255 
-6.21004 36.9748 41.8978 4.53477 -2.30496 3.65459 92 64 49 255 
17.0417 83.1591 -14.6607 6.20768 0.946786 0.0697618 85 62 50 254 
10.1097 126.685 -12.0031 5.18522 -0.694279 -0.380966 32 23 19 255 
-26.9535 -4.3888 46.7648 2.90733 -5.24063 1.74651 70 56 46 255 
-45.9513 113.88 44.4012 -3.98682 0.829665 4.76081 75 54 42 255 
-14.165 75.6601 50.6061 6.24459 0.167402 0.563862 85 61 50 255 
6.33918 87.652 15.3893 5.02735 1.62235 3.34281 108 77 63 255 
-84.5367 117.111 53.7468 1.17873 -2.99246 4.91553 60 42 33 255 
17.3002 79.1861 -11.9336 6.2333 0.49001 0.42823 94 69 56 254 
-103.451 149.663 40.9445 -3.09135 2.13401 5.02881 54 36 26 255 
-110.667 93.5647 45.202 -3.73105 0.978101 4.95029 70 47 35 255 
-13.6232 116.845 18.3397 -0.408137 3.69437 4.97622 32 20 15 255 
-24.8888 -5.69113 39.7852 3.41668 -4.62519 0.568426 47 38 31 254 
-51.6867 133.266 53.8431 2.27749 -1.70318 3.9588 28 21 17 255 
-34.9107 73.4587 56.5562 -1.67075 -2.9926 4.63415 69 43 33 255 
-6.75335 96.9712 25.5514 4.49233 2.85022 3.311 88 59 48 255 
0.88939 8.64217 37.069 4.84334 -2.20865 1.95804 59 48 40 255 
7.76117 129.989 -24.5617 5.57048 1.59128 -2.43152 47 32 25 255 
-75.7089 45.0315 58.2182 -0.442368 -2.54147 5.68574 145 114 93 255 
-0.114993 108.371 11.0543 4.74084 -1.34909 3.88854 83 60 48 255 
-46.1215 75.002 55.1744 -0.3758 -2.24836 5.84197 95 62 48 255 
-92.6024 104.723 50.3441 -1.24997 -1.23226 5.8073 50 32 24 255 
-41.9963 91.766 57.2073 -2.56109 1.2578 5.58934 89 63 49 255 
-42.3937 6.11821 54.5285 -2.68637 -0.8275 5.54249 69 57 46 255 
-10.6011 93.9296 42.7046 5.47659 2.81634 -1.12908 57 37 30 254 
-71.376 58.9879 62.1381 0.68026 -1.05274 6.14814 156 119 96 255 
13.1781 99.273 -27.2435 5.97989 1.65539 -0.9428 66 48 39 255 
-55.7165 164.115 41.2392 1.36308 2.18492 5.73008 95 67 50 255 
1.82213 150.692 -9.12579 5.57733 2.82359 -0.431996 57 40 30 255 
7.66228 138.688 -14.307 4.77493 3.10124 -0.472836 23 15 12 255 
-64.966 129.833 53.9691 0.957772 -3.78816 4.89374 89 70 58 255 
-19.1982 164.689 17.6708 4.34866 3.11778 3.2846 78 52 39 254 
-36.8233 135.857 47.2037 3.44745 -0.0840385 5.23791 139 103 83 255 
-111.896 99.4108 43.6219 -3.49239 -0.043118 5.14861 68 48 36 255 
-17.2525 -7.08877 21.5913 1.7565 -5.85892 0.794503 52 41 33 255 
10.9309 33.0806 -5.8781 5.84761 -1.79288 1.24208 95 78 65 255 
9.28779 100.258 0.23802 5.28077 2.39128 2.39714 88 64 51 255 
-2.78724 76.9988 27.1627 3.88245 -0.0357125 4.93694 115 78 60 255 
-6.5283 160.247 0.958724 4.78809 3.47841 2.07939 70 47 35 254 
-72.8733 132.397 57.387 -1.15112 -0.551029 4.46121 38 31 26 255 
-34.979 22.4364 54.1635 0.469924 0.843764 6.18682 85 57 41 255 
-8.28199 -0.225694 36.3235 1.81697 -5.0287 2.40518 52 43 36 255 
-7.36171 81.0993 45.5929 4.5398 -4.3097 -0.122491 109 74 59 255 
3.95437 37.9415 20.2528 6.06297 0.768938 1.36373 76 54 41 255 
-10.3902 43.2033 52.699 4.09098 -2.52146 4.04058 105 69 60 255 
-32.2092 105.838 57.3073 -2.71377 2.5329 5.06564 66 43 34 254 
-50.6706 -10.108 34.5838 -1.04161 -5.96222 1.20395 48 39 32 254 
-15.0982 3.80975 48.7558 2.60869 -4.1141 3.50537 70 61 51 255 
-38.1408 57.1258 61.9936 -0.598379 0.450466 6.00285 103 80 66 255 
2.87091 83.4921 21.7843 4.86022 1.28285 3.75613 113 79 65 255 
-24.9648 125.341 40.8872 3.66913 -3.08315 3.49776 91 66 52 255 
-49.586 138.102 53.0734 0.130227 3.0586 5.35076 102 77 61 255 
-55.557 8.55661 48.5295 -1.68357 -0.713341 5.28161 56 43 34 255 
16.366 83.4241 -23.1423 6.19758 0.555031 -0.852025 73 55 45 255 
-42.5588 146.771 47.6621 2.54795 2.73684 5.04472 89 61 46 255 
-18.1736 47.447 56.1311 2.1532 4.03469 4.27869 64 37 32 255 
3.26492 28.7386 24.1761 5.47985 0.860472 2.62491 58 41 30 255 
-95.9379 68.7537 58.4286 -2.82899 0.206547 5.59925 97 70 55 255 
13.6215 53.4988 2.37583 5.50769 -1.40419 2.6448 109 84 68 255 
-101.476 30.76 44.5087 -3.30377 -2.58086 4.52405 97 76 62 254 
5.55175 90.071 15.2199 5.16655 1.57416 3.13843 102 73 61 255 
-45.7661 48.7439 58.3138 -0.391063 -4.61817 4.23168 99 73 61 255 
-49.7004 64.2881 58.591 -0.103392 2.39148 5.70899 83 57 44 255 
9.25347 66.2044 14.7697 5.1029 -0.179716 3.64706 124 92 74 255 
-21.9285 48.8222 56.3607 1.46292 4.70889 3.82548 61 34 31 255 
-72.7446 125.399 54.6941 1.81593 -1.33221 5.84132 99 70 56 255 
9.68171 94.8082 4.58332 5.15528 2.08 2.9146 99 71 57 255 
15.5606 81.5385 -1.00971 6.02938 1.00573 1.37722 111 83 69 255 
-88.8024 28.5923 49.5164 -1.43096 -3.25753 4.82209 103 85 70 255 
-84.779 163.396 41.915 -1.51061 1.65427 5.85613 81 58 44 255 
-2.56105 64.4311 37.7573 4.67077 3.06616 2.69685 73 57 46 254 
-11.3965 82.1585 60.4662 0.70668 -5.23232 1.2518 34 24 20 255 
-109.63 136.105 41.3072 -3.49137 1.44931 5.0053 55 36 26 255 
-58.609 91.7259 53.9074 0.453406 2.71779 5.63694 71 47 37 255 
9.30645 49.7475 11.3565 5.42221 -0.805789 3.03411 109 78 60 255 
-96.7403 76.6766 57.3062 -2.55841 1.07845 5.62732 90 62 49 255 
-61.9659 20.4078 50.1896 -0.074698 -1.5114 5.91202 89 66 51 255 
-29.9679 88.3302 67.6458 -3.01337 1.69821 5.23107 72 46 36 255 
-35.3981 -11.4197 28.9899 1.20324 -6.12599 0.557562 55 44 35 255 
-4.54109 5.04247 40.5368 1.76457 -4.8873 2.6631 70 61 51 255 
-50.1332 31.9809 54.5725 -0.535475 -0.207639 6.25335 105 73 56 255 
-105.279 98.7138 46.8269 -1.96198 0.517864 5.94271 79 55 41 255 
-52.6174 111.675 42.7903 0.121793 4.14557 4.70337 49 30 21 255 
-79.164 41.2224 56.7047 -0.778203 -2.36742 5.67337 127 104 85 255 
9.01121 134.105 -17.213 5.33982 1.75128 -2.58517 42 31 25 255 
14.0748 40.2464 -12.9133 5.93949 -2.00323 0.254404 86 72 62 255 
-25.3036 113.077 53.3207 1.44468 4.79491 3.77637 57 36 27 255 
-11.7218 135.042 24.9354 4.04624 -3.03323 2.70128 61 47 39 255 
6.24963 65.0981 18.4395 4.83676 -0.50243 3.96594 110 76 58 255 
-118.857 86.4615 39.9318 -4.40564 0.560661 4.42472 65 43 34 255 
-54.7689 8.59638 49.0647 -2.83662 -1.82064 5.24875 64 50 40 255 
-19.8863 182.677 -5.83162 4.22586 4.46936 1.22731 61 43 34 255 
-97.6732 69.2082 57.6075 -2.79685 0.26868 5.61723 97 69 55 255 
-96.2983 154.836 42.2671 -2.32417 2.96669 5.01599 55 36 27 255 
-86.25 141.538 54.5248 -1.58374 4.67085 3.80337 43 29 21 255 
7.05639 143.715 3.60746 4.86509 1.81119 1.32333 8 7 5 255 
-78.8293 161.469 43.7488 -0.794794 2.49653 5.70521 70 47 34 255 
-0.48867 75.7288 25.4219 3.51537 -0.655272 5.1582 115 78 61 255 
-38.3243 173.505 27.9593 2.70207 3.73058 4.23562 91 64 49 255 
-63.3462 14.2578 47.6757 -0.84041 -2.97234 5.45008 95 73 57 255 
-19.2822 169.301 13.2775 4.75836 2.97153 2.79386 84 57 43 255 
-64.0625 99.5741 50.2223 1.66053 0.945589 5.87942 66 46 39 255 
-56.8676 138.785 56.2045 2.35714 0.716066 3.84155 32 23 19 255 
-33.7721 49.0965 55.8276 0.645889 2.85121 5.38417 47 29 26 255 
5.4303 20.3052 15.7285 6.15609 -0.644672 -0.669181 64 51 40 255 
-15.1326 0.420659 43.2379 3.41366 -4.36905 1.51606 57 47 38 255 
-20.5134 182.287 -2.61039 4.24033 4.47963 1.15866 60 42 32 255 
-38.917 69.9412 56.0709 -0.802096 2.63483 5.64527 84 57 46 255 
8.50924 61.197 14.9494 4.92735 -0.664865 3.82928 108 75 59 255 
-3.4703 28.8614 38.1588 5.04039 1.79615 3.27534 77 51 38 255 
-111.064 51.7417 44.461 -4.06482 -0.888933 4.6952 79 59 47 255 
-49.878 136.736 53.4818 1.42283 3.09302 3.99897 60 44 35 255 
-8.12797 51.1215 43.4596 2.97659 5.28712 1.61664 44 24 21 255 
-29.6078 24.1937 53.9102 -0.607835 1.87449 5.93995 73 51 38 255 
-26.6178 10.0163 57.2371 0.935658 -2.63803 5.46524 82 70 60 255 
-68.8067 105.723 53.2019 3.30988 3.054 3.92172 59 38 29 255 
-56.6938 75.2836 59.3476 2.03545 0.53587 5.90352 140 98 78 255 
-16.6691 103.565 60.1515 2.88568 4.7304 2.95754 61 39 31 255 
-2.70944 55.3112 37.6516 3.67035 -4.49175 2.1893 89 61 52 255 
12.6064 53.56 5.42993 5.49369 -0.0921747 2.62615 107 80 63 255 
-36.4249 41.4469 58.7478 -1.63814 -0.454553 5.99486 101 70 57 255 
-79.7807 37.0587 55.1323 0.264304 -2.8063 5.51842 127 104 87 255 
0.664836 72.7126 24.473 3.86315 -0.0148234 4.94812 110 74 56 255 
-53.5179 139.465 54.2953 3.56505 2.05501 4.29961 73 54 43 255 
-7.40612 90.7479 44.6016 4.86355 3.3973 -2.0571 49 32 26 255 
3.11422 7.10212 31.3312 5.25691 -0.854294 3.11635 54 43 35 254 
-1.14155 43.9768 31.3682 6.14712 0.505338 1.14945 86 61 47 255 
-61.7829 155.485 46.1661 0.357947 2.76661 5.57054 69 46 34 255 
-35.1554 -4.62842 51.6385 0.525657 -4.90327 2.76913 59 48 41 255 
-20.1647 113.286 46.3635 4.86879 3.84572 0.964721 61 41 32 255 
-98.3973 154.411 41.4748 -2.891 2.03724 5.17208 53 35 25 255 
-34.8952 81.6025 65.7824 -2.13309 -1.72915 5.64952 116 80 66 255 
-12.8122 68.7165 51.0213 4.94582 0.832956 3.67267 81 63 51 254 
0.966358 127.242 6.77199 3.4601 -1.08457 3.17074 27 18 14 255 
-31.2825 164.763 28.7358 3.9994 2.13622 4.33379 93 66 50 255 
-8.26048 84.0128 53.7471 2.66889 -4.89788 2.73519 102 75 62 255 
-4.58259 -2.16398 18.3427 2.41659 -5.68088 -1.03838 41 32 25 255 
-50.7681 52.2877 60.101 0.426417 -1.95995 5.81488 93 74 61 255 
-110.556 96.9396 44.7181 -3.36153 0.780526 5.22583 70 48 36 255 
-2.92354 127.717 14.1629 1.77428 0.26909 4.70867 22 16 13 255 
-115.617 120.028 38.8434 -4.03063 0.0961004 4.8089 64 44 32 255 
-13.5593 80.0892 63.6476 3.94689 -4.8024 0.818598 115 86 72 255 
-18.8987 58.4444 57.6406 2.93521 2.0436 5.1405 98 61 46 255 
-56.6927 59.4956 59.4411 -0.0956381 0.564393 6.20669 81 59 46 255 
12.3235 99.5302 -9.73188 5.89018 1.9375 0.854764 80 56 45 255 
-115.493 67.8239 43.9897 -4.31125 -0.736938 4.50447 77 54 43 255 
6.12898 112.798 -9.08517 5.97476 1.38364 1.29407 56 39 29 255 
-17.0261 -6.05536 26.2914 1.68299 -5.68402 1.75043 56 44 35 255 
-55.525 176.556 33.5529 0.951297 4.21455 4.53785 68 48 36 255 
-86.3819 131.147 58.1683 3.11561 2.78738 3.08975 10 7 6 255 
-2.61523 70.3418 30.5612 5.21894 2.83566 1.66834 70 49 38 255 
-9.22908 116.122 18.2272 0.165211 3.88765 4.88279 38 24 18 255 
-6.52018 148.115 20.9962 3.0467 3.31427 3.71069 44 34 29 255 
-33.4844 174.942 24.4839 3.26801 3.75744 3.79643 83 58 44 255 
-12.8835 45.0861 55.0512 2.92629 1.41041 5.36522 85 48 42 255 
3.94887 53.6736 20.7375 4.71093 -2.80188 2.9651 80 60 46 255 
-79.7584 81.8429 59.5996 -0.327067 1.75451 5.99062 98 69 54 255 
9.70745 133.051 -2.5807 3.97381 -2.14138 1.68695 46 35 30 255 
5.06739 102.441 5.74276 4.87258 2.59127 2.99715 85 61 49 255 
-76.2719 36.9 55.135 -0.192405 -2.60333 5.70042 139 111 91 255 
-35.6953 29.519 54.7471 0.569027 -1.32983 6.11171 122 86 64 255 
-52.9581 165.129 40.092 1.70525 2.3272 5.57424 96 67 50 255 
-104.126 40.5524 46.6802 -3.37245 -1.70304 4.99784 98 77 63 255 
-53.496 2.7409 47.9684 -2.94895 -3.69366 4.03446 67 54 43 255 
-14.1792 85.5542 71.6219 1.67737 -1.95659 5.70711 167 128 110 255 
-82.3047 89.7232 56.2775 -0.389991 2.46225 5.7649 85 59 45 255 
-5.54825 -1.19443 31.1974 1.17933 -5.30406 2.85095 49 39 32 255 
-24.2877 116.363 48.6184 3.74608 3.89354 3.18162 58 38 29 255 
-19.79 112.188 39.8601 5.31437 3.22826 -0.892301 67 46 37 255 
-50.7873 128.004 50.8957 0.187778 -3.76224 4.70729 69 54 44 255 
-8.55135 69.8552 43.0986 4.41807 3.60161 2.57891 66 50 40 255 
-22.7929 3.58362 53.9615 2.16869 -3.36222 4.41618 73 62 52 255 
4.48204 23.6912 23.1535 5.75396 1.53999 1.711 65 48 37 255 
-7.80967 92.9471 54.5403 4.96267 3.78673 0.572106 63 41 33 255 
-25.8156 -8.3833 29.4152 2.15585 -5.85113 0.221437 63 50 39 255 
-15.3212 165.23 11.2107 4.67572 3.09003 2.83193 77 53 39 255 
-33.3344 147.392 42.1071 2.24175 2.65949 5.2296 94 64 47 255 
-38.8489 -4.08024 51.9772 -0.40886 -5.07884 3.51907 76 63 52 255 
-44.9418 138.284 51.1773 1.9543 0.564527 5.90093 128 96 77 255 
-23.3241 -5.06719 38.2801 3.39591 -4.13735 2.84961 58 47 38 255 
-64.1541 42.2694 57.0062 0.0475182 -1.98041 5.75673 99 71 54 255 
-89.1572 96.6207 53.2813 -2.11884 0.71839 5.84559 79 60 48 255 
-17.875 124.922 21.9334 3.34897 -4.02592 3.46051 53 35 26 255 
-26.7267 142.57 40.7307 2.59023 1.56729 5.48994 119 84 66 255 
1.66789 96.084 15.6934 4.21701 3.10813 3.42842 81 54 44 254 
8.48554 124.532 -9.90311 5.89407 -1.34449 1.20171 58 42 32 255 
-81.0974 31.6459 52.695 -0.730589 -2.20989 5.80986 137 112 92 255 
3.81534 34.9617 21.2782 5.72046 0.302853 2.29874 74 53 39 255 
-119.448 86.7832 39.278 -4.32152 0.938783 4.44366 66 45 34 255 
-17.3613 -3.63418 34.6982 1.8388 -4.06503 3.96334 61 49 39 255 
-62.5294 34.8964 55.009 0.966685 -2.0142 5.84138 120 89 70 255 
-86.2804 170.661 38.0458 -1.89972 2.81049 5.28059 59 40 29 255 
5.18333 113.887 -2.86952 6.1717 0.97458 0.591415 51 33 26 255 
10.3681 131.652 -14.2819 5.44372 0.564495 -1.85049 24 16 13 255 
-33.021 133.144 44.8166 3.03691 0.0943904 5.46926 128 91 71 255 
-64.4202 55.2853 60.3833 1.53656 -1.80006 5.81405 144 104 81 255 
-21.2394 166.597 18.453 4.4213 3.16419 3.14482 85 58 44 254 
-1.14562 119.094 7.85595 4.03245 0.720078 2.01058 57 54 51 255 
8.94197 112.148 -20.0761 5.90382 1.76839 1.17891 80 58 44 255 
1.76445 146.652 8.09483 4.23817 2.51192 0.154358 30 25 22 255 
-42.6392 43.3211 56.2852 -2.36472 1.90708 5.47767 58 36 30 255 
-23.3361 -8.32249 25.6631 1.43061 -5.9689 0.750521 60 47 37 255 
-18.2771 175.291 5.28308 4.79544 3.30423 2.3411 78 55 42 255 
-4.2745 27.9433 39.8886 4.51989 2.96645 3.18058 70 48 35 255 
-23.612 108.728 57.3118 1.01974 4.64371 4.10244 53 33 25 255 
-92.5599 25.9991 46.6086 -2.56669 -3.45632 4.55702 110 88 72 255 
-116.28 78.6357 43.63 -4.34219 0.795437 4.46681 69 46 37 255 
-41.7863 37.3492 56.2263 -1.84387 -1.30789 5.848 106 80 63 255 
10.6343 131.168 -12.2534 5.74421 -0.822143 -0.116374 28 20 16 255 
7.78458 27.4145 1.66582 6.22573 -0.182638 0.451921 81 60 47 255 
-16.8482 81.0531 68.3211 0.13457 -5.15424 3.58522 140 106 89 255 
-39.2233 -8.03747 47.5965 0.812179 -5.69023 2.35232 56 46 38 255 
-41.8943 84.4237 59.5222 -4.75569 1.92118 3.61993 68 42 33 255 
-110.431 88.8284 46.4948 -3.97465 1.1498 4.71661 63 43 32 255 
-64.1572 45.7244 57.8504 0.308223 -0.895766 6.1728 93 66 50 255 
-23.0636 68.7759 58.5917 1.55645 -0.836922 5.90367 96 75 61 255 
14.1021 87.395 -0.92326 5.86202 1.51748 1.6407 104 77 62 255 
-69.7131 126.861 54.112 1.89961 -1.21951 5.84185 110 80 63 255 
-0.0807804 130.692 10.7424 4.67824 -3.20559 1.19657 51 35 27 255 
-7.65843 125.417 12.8335 0.575798 -2.87943 5.1661 10 6 5 255 
4.4992 25.7312 20.989 6.06062 1.33097 0.842616 68 50 38 255 
-43.9868 51.3048 60.4249 -0.644662 -2.6107 5.67146 116 86 71 255 
-35.43 67.9253 57.9326 -1.20827 3.36608 5.14623 71 52 41 255 
-96.8402 25.0307 43.781 -2.7073 -3.42466 4.39947 103 85 71 255 
-27.1142 122.214 44.5709 3.9085 3.3523 3.5669 83 57 44 255 
-1.55586 156.1 -5.89403 5.38588 2.89022 1.3473 63 43 32 254 
6.78973 27.2857 6.90623 6.11823 -0.64847 1.19917 82 63 49 255 
-71.3584 6.34319 41.2461 -1.46809 -3.36041 4.98402 76 57 45 255 
12.3896 57.6159 7.17989 5.76665 -1.02725 2.23663 118 90 73 255 
-31.3847 74.2714 57.7335 -0.20212 -1.40663 6.08212 86 57 44 255 
-5.43421 134.051 17.5454 3.99675 -1.56707 4.58046 97 70 55 255 
-40.9368 82.8596 61.472 -4.51831 1.0796 4.2256 75 46 37 255 
-50.2827 99.9321 50.509 -1.68739 3.27415 5.08564 67 46 36 255 
-40.4955 75.6465 58.3342 -2.14878 -5.03864 3.04065 109 73 59 255 
-5.58236 1.01101 36.6458 2.26712 -5.71316 0.646019 61 50 41 255 
-60.5653 80.0849 59.157 0.662978 1.84422 5.96774 115 81 65 255 
-30.7443 171.457 25.0601 3.52247 2.84825 4.13716 91 65 50 255 
-75.6018 157.373 46.1133 -0.0604842 2.98608 5.52335 69 45 33 255 
-47.9106 144.494 51.1248 2.01755 1.80648 5.66513 106 75 59 255 
-13.3031 127.103 18.6666 2.42336 -1.84742 4.8745 24 15 11 255 
-66.4995 110.82 48.0831 1.17707 0.813024 3.88036 32 31 32 255 
-10.133 85.44 68.8879 4.60049 -2.67126 3.32446 140 104 89 255 
-27.7212 149.635 38.2333 2.49574 3.10878 4.84942 88 60 46 255 
-89.851 159.307 42.2776 -1.52027 2.38875 5.51748 54 35 25 255 
-10.4591 71.3556 44.8195 4.62073 3.40399 2.52425 68 50 41 255 
-116.958 70.3948 42.9738 -4.89117 -0.50639 3.86478 71 48 38 255 
6.55106 36.4654 12.9611 5.86562 -0.703878 2.13035 90 64 47 255 
-16.2328 105.593 55.2289 4.24356 4.34068 1.61457 65 43 34 255 
3.50829 147.705 -9.35008 5.21298 2.88333 -1.15549 45 30 23 255 
-44.895 178.682 27.8857 2.35307 3.49961 4.6239 79 56 43 254 
-65.3339 55.1322 60.5022 0.867516 -1.53834 6.00865 144 105 82 255 
-81.4487 137.719 58.377 0.845814 -1.03382 3.67313 11 9 7 255 
3.54142 117.299 2.51375 5.58392 2.2022 0.917193 47 33 28 255 
-94.0757 166.839 37.1228 -2.00125 2.82286 5.23679 57 39 29 255 
-32.1696 132.514 44.3489 3.29219 0.324573 5.29957 134 99 78 255 
-23.3875 75.825 61.7585 -1.98694 -4.95953 3.22633 116 83 68 255 
-68.4133 70.4282 62.3147 0.595397 0.553617 6.18199 135 99 81 255 
10.8011 104.926 -16.6609 5.49673 2.67526 1.17365 73 53 42 255 
-24.807 182.401 6.31843 3.61782 4.50586 2.45683 65 46 36 255 
-29.6158 -5.14276 48.1815 2.37462 -5.41993 2.08679 79 65 53 255 
-51.3407 6.99847 50.2859 -3.04748 -1.67275 5.20748 72 56 44 255 
-21.7789 64.0921 57.4534 2.76839 -0.475375 5.55149 99 79 64 255 
-70.015 77.0595 61.116 0.482078 1.63008 6.04738 114 81 64 255 
-8.8742 22.9402 48.8284 2.54219 2.72711 5.03159 75 54 41 255 
-14.8925 136.322 32.7935 5.01879 -0.352865 1.46129 27 20 16 255 
-23.5621 119.952 34.9699 6.2325 -0.100616 -0.742986 81 58 45 255 
0.113479 42.0471 27.4881 5.88315 1.24423 1.81259 85 57 43 255 
-3.02606 2.28537 36.0581 2.76667 -3.29679 3.90466 46 38 31 255 
-23.6254 -2.82009 45.3414 2.54028 -5.0194 1.55333 57 47 39 255 
-86.8482 121.033 57.0818 2.53916 -0.926683 5.25684 74 56 45 255 
-48.6042 10.4262 52.1008 -1.01258 -0.502677 6.07789 61 47 37 255 
-64.5718 38.9658 56.3754 0.199616 -2.29621 5.80149 122 92 73 255 
-93.0531 138.452 54.0505 -2.66347 4.41571 3.54628 42 28 21 255 
-10.4021 92.6216 39.9195 5.62838 2.60802 -0.962763 63 42 33 255 
-68.2868 78.6676 60.4561 0.57672 1.92335 5.93421 106 72 57 255 
-30.6749 179.756 16.9876 2.84377 4.43967 3.40973 69 49 37 255 
-2.71562 160.433 -16.0743 5.56768 2.89227 0.218439 58 40 30 255 
-32.8213 111.853 54.0229 -2.25073 3.00202 5.03356 65 45 35 255 
-62.3416 6.10036 44.5963 -2.02659 -2.48064 5.30683 83 63 49 255 
-28.4542 147.483 39.8342 2.42669 2.61323 5.1676 97 67 51 255 
-93.0831 64.141 59.3144 -2.24627 -0.548375 5.83963 108 78 63 255 
-25.7882 75.5328 60.1447 -2.73121 -2.56023 5.03066 124 93 77 255 
-33.8655 129.756 45.6321 2.77038 0.703601 5.57191 125 93 75 255 
-59.4192 4.19374 45.2238 -2.69435 -2.43726 5.08486 84 65 51 255 
-14.829 103.635 56.2554 4.83859 3.85038 1.09439 66 43 34 255 
17.3732 73.8228 -7.60361 6.24187 0.161653 0.667849 104 77 63 255 
-75.5216 95.1757 54.2363 1.15831 0.999343 6.08624 100 73 59 255 
-39.8485 24.6001 54.3055 0.0267049 -0.693805 6.24078 100 66 48 255 
-101.214 79.0611 54.7485 -3.19623 1.16853 5.27619 80 57 45 255 
-20.9801 41.1246 58.4485 2.24803 -3.43188 4.74681 128 95 78 255 
-31.9645 155.343 36.2296 2.42973 3.37863 4.70619 75 51 37 255 
-68.1755 90.6447 55.1425 0.671119 2.86639 5.54544 83 59 48 255 
-79.4344 135.31 57.9132 -0.693166 1.30766 4.92154 16 12 10 255 
7.44141 32.6996 8.48965 5.96915 -0.862028 1.7332 91 67 51 255 
-14.7874 103.655 38.3107 5.4989 3.01644 0.238279 78 55 45 255 
-62.4181 151.559 49.6946 0.300979 3.93999 4.88244 60 39 29 255 
-15.2059 11.1373 53.9723 4.68016 -0.699607 3.6052 88 72 59 255 
6.07895 96.5028 9.21736 4.73605 2.72463 3.09896 91 63 51 255 
-10.7976 151.57 22.7656 4.89298 2.55323 2.92189 78 55 43 255 
2.5733 90.9042 18.782 4.75202 2.23214 3.44741 98 67 54 255 
-36.6499 50.5214 58.3816 1.71456 -5.29911 2.88877 69 40 33 255 
-10.6983 -4.73466 12.3711 2.2301 -5.802 -0.0492753 41 31 23 255 
-14.4195 -6.16881 21.3555 2.16666 -5.78052 0.81439 50 40 31 255 
-93.468 107.175 50.6447 -0.564864 -1.61155 5.96995 59 40 31 255 
-95.9683 123.506 57.382 -2.63794 2.82433 3.31183 29 23 19 255 
-58.9369 54.3848 59.7614 -0.504534 0.10361 6.22711 86 68 55 254 
-27.9024 -6.60903 41.5209 3.97843 -4.55161 0.598755 49 39 32 255 
-91.0447 35.3903 51.9409 -1.44277 -3.34152 4.97223 103 84 69 255 
-52.6878 125.88 48.8285 -0.118978 -4.59191 4.21259 112 86 70 255 
-32.4214 31.4632 54.9083 1.04882 -2.28997 5.75429 116 80 59 255 
-22.0983 61.5727 57.6109 3.86483 0.917056 4.80358 100 76 63 255 
-22.8698 169.873 17.8692 4.37328 2.46307 3.77774 96 70 53 255 
4.68438 13.6945 30.1149 5.96441 0.56691 1.3564 57 46 38 255 
5.62743 11.8875 22.4759 6.13088 -0.179209 -1.1337 65 52 43 255 
10.5636 78.2536 12.1536 5.3844 0.361019 3.20053 131 100 82 255 
-48.3254 73.6864 55.1306 1.40056 0.146637 6.09746 120 81 62 254 
-34.4579 57.1721 61.966 0.145975 0.698325 6.18577 109 77 62 255 
-49.7949 29.7951 54.396 -0.48355 -1.15892 6.14237 91 63 48 255 
-105.945 78.5099 52.0026 -3.38913 0.504349 5.24817 75 53 42 255 
-73.0766 93.0904 54.4506 0.898913 3.0011 5.43348 88 63 50 255 
-14.7173 69.7869 52.9674 5.4377 0.314757 2.83388 87 64 51 255 
-34.4047 64.9902 59.5676 0.706753 1.97825 5.57447 67 49 39 255 
11.4044 32.9837 -9.03375 6.00313 -1.61069 0.823775 89 72 59 255 
-66.1772 26.4832 51.9153 0.320133 -2.93279 5.29757 116 92 74 255 
-15.2723 117.957 16.9691 0.134778 3.34605 4.88305 32 23 19 255 
9.89136 134.009 -4.46678 4.49481 -0.412635 1.07612 25 20 16 255 
-87.0371 143.435 52.01 -1.8533 4.24752 4.22044 54 37 27 255 
12.7453 55.0454 5.33804 5.64864 -0.826576 2.61129 111 85 68 255 
-23.5362 -9.04647 21.084 1.22279 -6.1259 0.293431 54 42 33 255 
-40.3268 180.152 24.8029 3.6409 2.23055 4.45932 76 55 43 255 
1.25897 39.8782 25.6432 5.63049 1.34809 2.42742 91 62 46 255 
-43.8263 97.2241 54.703 -2.33601 2.33044 5.34024 78 54 41 255 
-91.2662 124.768 58.4587 2.61225 0.215357 4.88291 32 25 19 255 
0.272977 97.0568 16.73 4.28772 3.30289 3.16063 76 50 39 255 
-96.4245 114.432 53.8621 -0.340035 -4.17628 4.65403 87 67 55 255 
4.76941 26.4934 18.8978 6.06417 0.914293 1.28379 68 51 40 255 
-58.4678 107.002 46.6355 2.20033 3.52808 4.67486 55 38 31 255 
-15.6124 -6.70306 15.7678 2.27005 -5.81753 0.0147838 50 39 32 255 
-75.0254 113.356 51.2177 3.20276 0.888164 5.0637 12 8 6 255 
-99.2697 113.319 52.8549 -0.275687 -3.59338 3.45249 76 59 49 255 
-33.3171 -10.2186 35.5813 1.90324 -5.94982 0.499451 51 42 34 255 
-0.721288 122.728 5.86795 4.69825 0.546396 0.558441 87 91 88 255 
-6.63862 84.6135 51.8976 4.95047 -3.45648 1.72168 120 86 72 255 
-8.09552 63.2144 47.5969 4.61369 1.69641 3.86086 83 65 53 255 
-6.4731 159.356 2.11975 4.77534 3.38021 2.27058 70 46 34 255 
-84.1114 141.518 54.7934 1.08541 4.9619 3.58696 40 29 22 255 
-53.7122 135.901 54.9941 1.41772 -2.68456 4.68958 24 18 14 255 
-67.2346 129.503 54.6228 1.05 -3.36693 5.13296 90 70 58 255 
-47.3048 180.033 27.5015 2.50366 3.75514 4.23093 75 56 44 255 
-25.4113 70.7305 58.9709 0.371656 0.27168 6.22089 101 77 62 255 
-75.7246 87.4799 57.3706 0.345723 2.95445 5.53274 82 55 43 255 
-70.4533 75.2668 61.582 0.0146321 1.37915 6.11628 118 83 68 255 
11.2048 99.3325 -4.06879 5.69411 2.19073 1.4817 95 69 56 255 
2.27185 56.3008 26.2722 5.44761 -1.47111 2.39686 88 68 54 254 
-115.264 89.8386 42.419 -3.98775 1.1141 4.70815 64 41 31 255 
-6.12181 120.442 11.945 -3.08821 2.73722 3.99809 105 109 113 255 
12.7769 44.428 -0.0469103 5.99725 -1.37654 1.24164 103 82 68 255 
-43.3044 168.614 33.7281 2.50857 2.78459 5.04079 94 67 51 255 
-27.7901 154.209 34.8112 2.55396 3.63733 4.4355 70 47 35 255 
-61.3078 7.84759 45.8812 -1.91421 -1.94255 5.552 73 55 42 255 
-2.09745 37.4927 35.1295 5.66681 -0.0531975 2.70124 85 58 43 255 
7.18535 136.613 -18.7537 5.15725 2.79724 -2.22849 44 32 24 255 
6.25866 23.706 7.12702 5.94765 -1.71434 -0.391116 74 58 46 255 
-46.2145 -6.25337 46.6439 -2.84371 -5.31365 1.30458 57 46 37 254 
-70.6164 66.3017 62.6537 0.3525 0.105882 6.26382 145 109 89 255 
8.86278 85.8724 12.3613 5.21837 1.56884 3.11149 114 84 69 255 
-98.7293 90.7115 51.662 -1.54135 2.89333 5.28113 64 44 32 255 
4.81688 23.3239 19.7245 6.02926 0.69469 0.886934 52 39 30 255 
2.06592 88.7531 20.7505 4.58205 2.00706 3.79663 102 70 57 255 
-71.9766 172.019 39.6114 -0.12224 3.49958 5.21304 71 50 38 255 
-12.5257 67.7019 50.9385 4.77535 1.5813 3.67592 89 68 56 255 
-3.10506 96.0391 21.9302 4.1891 3.10095 3.50161 89 60 50 255 
-7.32851 17.0605 49.6624 3.31643 0.409963 5.05212 84 66 52 255 
-52.5037 131.237 52.7156 0.384468 -4.02709 3.17781 36 28 23 255 
-16.9959 -6.55089 24.7303 1.81387 -5.74407 1.32615 58 45 36 255 
-6.51734 152.864 13.7632 3.65334 4.67632 1.98648 62 43 33 255 
-17.112 12.2718 55.6011 2.85826 -1.22225 5.15302 91 74 61 255 
-77.5034 134.002 58.5484 -1.17919 2.65304 4.11294 14 11 9 255 
-87.099 137.597 57.7422 -1.58174 0.568167 4.40445 22 16 12 255 
13.013 89.6428 0.710766 5.72746 1.93511 1.70505 101 73 61 255 
4.45637 9.7964 29.4562 4.90418 -1.56061 2.86248 48 39 32 255 
3.35206 149.773 -3.95344 3.33252 5.20719 -0.979967 55 39 30 255 
-1.49827 125.359 7.58636 4.31167 -1.95948 0.534559 45 38 33 255 
-32.2159 79.713 64.829 1.02247 -5.01222 3.59423 150 110 91 255 
-25.7109 158.123 29.7578 2.84548 3.87829 4.03465 65 43 31 255 
5.26956 17.5613 -0.333417 5.97518 -1.93842 0.0640938 72 54 42 255 
-60.3638 176.236 35.2057 1.04843 4.27359 4.47981 62 43 34 255 
-23.4039 120.249 36.9066 6.25988 0.386484 0.0216531 89 65 50 255 
16.1883 50.8484 -12.104 6.06641 -0.738937 0.943249 100 81 67 255 
-6.02172 7.98008 45.3868 3.33821 -4.33106 2.74501 79 67 56 255 
-1.41302 157.077 -9.99924 5.48297 2.88108 0.999724 62 42 32 255 
-24.7504 103.727 61.6734 -1.29428 3.59447 4.98133 58 36 28 255 
-101.584 102.736 47.9239 -1.68904 -0.340897 6.03542 75 53 40 255 
4.13276 146.391 3.67943 3.28935 2.88173 3.24053 15 11 9 255 
4.56866 108.879 2.80428 5.75902 0.924306 2.29749 75 53 42 254 
6.37679 145.964 0.789178 3.9626 3.44661 2.25371 24 18 15 255 
-22.4688 8.00797 56.1667 0.253279 -2.08531 5.05284 84 71 60 255 
-7.68975 101.688 22.4424 4.3363 3.15515 3.26795 82 57 46 255 
-10.8609 160.524 9.26096 4.56181 3.53971 2.46625 72 49 37 254 
0.446293 3.43447 12.4353 5.20279 -2.95407 -0.521622 39 31 25 255 
-116.663 101.38 39.3337 -4.48144 0.254731 4.38726 67 44 35 255 
-93.0982 122.406 57.5945 -2.06812 -0.473811 5.50988 67 53 45 255 
-37.2916 142.12 46.5263 3.27433 1.95103 4.98876 111 77 60 255 
-90.1691 142.762 50.9563 -2.14884 3.613 4.63826 53 35 25 255 
-80.2144 156.421 46.2 -0.788295 2.8597 5.52773 65 44 31 254 
10.7617 80.8535 11.1545 5.41445 1.05994 2.99101 122 90 73 255 
3.52304 95.6477 13.597 4.5543 2.84841 3.2237 84 57 45 255 
-97.2812 128.339 56.0843 -3.16132 1.66048 4.84032 30 24 20 255 
-16.6378 63.0162 54.4185 3.5932 -0.682844 5.06755 96 74 61 255 
-3.03108 160.625 -12.0204 5.50196 2.98097 0.211309 56 38 27 255 
0.483874 113.127 11.9897 5.22569 0.410507 3.45107 78 57 47 255 
-20.564 102.069 63.6819 0.0213159 4.18812 4.67907 55 35 27 255 
-80.5821 73.4102 61.6678 -0.7561 1.33923 6.0791 105 74 59 255 
15.8061 70.2908 0.569261 6.10879 0.0348599 1.43076 121 93 76 255 
-5.44698 -0.680659 7.90684 2.70154 -5.28857 -1.95916 45 34 27 255 
-109.507 95.7431 45.5156 -2.98089 1.10996 5.40178 72 49 37 255 
-30.163 2.81868 55.2782 0.819113 -0.613759 5.9375 64 55 45 254 
-43.386 31.3866 55.1455 -0.369461 -0.715866 6.19103 111 78 60 254 
5.49664 95.8858 10.6106 4.57703 2.79975 3.25151 93 65 53 255 
-19.849 21.158 55.439 1.21883 2.3476 5.68051 76 55 42 255 
-12.51 32.3526 45.882 3.0898 0.322587 5.13273 67 48 38 255 
-6.27893 68.6381 40.3619 4.28216 3.61928 2.74755 66 49 39 255 
-31.848 48.7223 56.2537 -0.644661 4.35195 4.41303 49 28 24 255 
-3.2517 100.896 17.5477 4.23511 2.90413 3.61542 80 56 45 254 
-101.73 87.3724 51.8662 -2.57681 2.24551 5.2695 68 46 35 255 
-2.70406 155.325 -0.468513 4.99898 3.32131 1.82833 67 45 33 255 
-88.254 145.621 50.0043 -1.31436 2.62792 5.53974 57 37 28 255 
-42.4754 -12.007 32.2026 0.412642 -6.14896 0.423433 53 43 34 255 
-87.1063 60.9865 60.7869 -1.60638 -0.476836 6.05169 130 99 80 255 
13.6866 81.0594 4.70819 5.81741 1.27717 1.98975 115 88 74 255 
12.4659 36.7337 -6.81521 5.81267 -1.68927 -0.0113471 80 68 57 254 
-5.42167 10.1648 46.2456 4.16972 -0.811172 4.04901 71 58 48 255 
-9.12558 91.5941 42.1765 4.56763 3.81712 -2.0003 49 32 25 255 
-1.5479 150.47 8.60998 2.65635 5.62235 -0.628239 53 38 30 255 
-18.6225 157.302 25.686 2.96253 4.15666 3.65721 62 41 31 255 
-6.88704 10.6921 47.7006 3.02912 -2.49243 4.6332 92 75 62 255 
-111.007 142.008 39.5555 -1.72416 0.461749 5.9682 53 37 26 254 
-27.7114 105.929 59.3869 -1.63428 2.90294 5.31637 62 40 30 255 
-9.51466 151.329 21.0649 4.5931 3.50036 2.12042 77 56 45 255 
-109.741 99.6163 44.9116 -3.45518 0.171617 5.22171 77 55 42 255 
-15.4877 4.53739 49.796 3.48608 -3.05735 3.42061 70 60 51 254 
-83.8502 13.1299 41.5347 -2.07727 -2.8186 5.15997 109 87 71 255 
-48.8898 -8.28433 41.2696 -1.29942 -3.31547 4.49199 45 35 28 255 
-66.7459 135.431 56.5252 3.66499 -1.84318 3.59102 13 10 9 255 
-44.6966 2.86525 52.8424 -2.23391 -1.51779 5.11992 55 45 37 255 
