ply
format ascii 1.0
comment VCGLIB generated
element vertex 807
property float x
property float y
property float z
property float nx
property float ny
property float nz
property uchar red
property uchar green
property uchar blue
property uchar alpha
element face 0
property list uchar int vertex_indices
end_header
100 188 -42.938 0.238835 -0.0974583 0.966157 86 19 6 255 
100 189 -43.4777 0.230941 0.320343 0.91872 107 23 7 255 
100 190 -44.0091 0.0829164 0.381392 0.920687 134 30 11 255 
100 191 -44.0091 0.119046 0.225746 0.966885 134 30 11 255 
100 192 -44.5808 0.119998 0.28623 0.950617 159 49 17 255 
100 193 -44.5808 0.161088 0.171892 0.971856 159 49 17 255 
100 194 -44.9619 0.227065 0.0152434 0.97376 178 48 16 255 
100 195 -44.9619 0.30844 -0.0780672 0.948035 178 48 16 255 
100 196 -44.7109 0.319289 -0.120023 0.940026 178 47 16 255 
100 197 -44.7109 0.191824 -0.159111 0.968446 178 47 16 255 
100 198 -44.316 0.167215 -0.321646 0.931978 168 42 14 255 
100 199 -43.5987 0.117767 -0.281488 0.952311 161 40 14 255 
100 200 -43.5987 0.23138 -0.465147 0.85446 161 40 14 255 
100 201 -42.8772 0.149436 -0.58874 0.794389 156 45 14 255 
100 202 -42.8772 0.187598 -0.426061 0.885031 156 45 14 255 
100 203 -42.1524 0.280112 -0.620465 0.732503 143 45 14 255 
100 204 -41.0035 0.329039 -0.743732 0.58189 123 42 13 255 
100 205 -39.0102 0.241642 -0.792335 0.560192 110 39 12 255 
100 206 -38.16 0.102191 -0.736278 0.668919 109 39 12 255 
100 207 -36.9948 0.186836 -0.712323 0.676527 109 35 11 255 
100 208 -35.843 0.161573 -0.652124 0.740694 117 37 11 255 
100 209 -35.0765 0.104039 -0.434439 0.894672 131 41 11 255 
100 210 -35.0765 0.14098 -0.417299 0.897768 131 41 11 255 
100 211 -34.2703 0.165073 -0.237445 0.957273 157 51 14 255 
100 212 -34.2703 0.152606 -0.0269077 0.987921 157 51 14 255 
100 213 -34.5408 0.155847 -0.0403824 0.986955 174 59 16 255 
100 214 -34.1423 0.246413 0.112072 0.962663 181 64 17 255 
100 215 -34.8862 0.241916 0.193269 0.950854 181 66 19 255 
100 216 -34.8862 0.18302 0.0839655 0.979517 181 66 19 255 
100 217 -34.795 0.168974 0.199034 0.965315 181 67 19 255 
100 218 -34.795 0.212433 0.230723 0.949547 181 67 19 255 
100 219 -35.5047 0.255471 0.182331 0.949468 169 62 17 255 
100 220 -35.5047 0.134602 0.177586 0.974857 169 62 17 255 
100 221 -35.5047 0.0487959 0.162311 0.985532 169 62 17 255 
100 222 -35.8865 0.115378 0.166167 0.979325 159 62 17 255 
100 223 -35.9775 0.051328 0.0148031 0.998572 164 65 17 255 
100 224 -35.9775 0.165545 0.014121 0.986101 164 65 17 255 
100 225 -35.9775 0.19722 0.0857519 0.976602 164 65 17 255 
100 226 -36.3898 0.287696 0.0354843 0.957064 153 64 18 255 
100 227 -36.3898 0.240876 -0.0118456 0.970484 153 64 18 255 
100 228 -36.114 0.17314 0.01011 0.984845 149 63 18 255 
100 229 -36.114 0.080387 0.0105196 0.996708 149 63 18 255 
100 230 -36.2834 0.0874108 0.033056 0.995624 141 58 17 255 
100 231 -36.2834 0.0596728 -0.0280363 0.997824 141 58 17 255 
100 232 -36.0969 0.0272039 -0.0622788 0.997688 132 57 17 255 
100 233 -36.0969 0.0187719 0.0250498 0.99951 132 57 17 255 
100 234 -36.0969 0.0256932 -0.198709 0.979722 132 57 17 255 
100 235 -35.5634 0.0756369 -0.258825 0.962958 130 58 17 255 
100 236 -35.5634 0.049364 0.032976 0.998236 130 58 17 255 
100 237 -35.5634 0.140942 -0.221482 0.964925 130 58 17 255 
100 238 -35.1503 0.09604 -0.311608 0.945345 128 58 17 255 
100 239 -35.1503 0.170881 -0.431781 0.885644 128 58 17 255 
100 240 -34.062 0.122469 -0.433855 0.89262 120 53 17 255 
100 241 -34.062 0.0416132 0 0.999134 120 53 17 255 
100 242 -34.062 0.149919 -0.499033 0.853517 120 53 17 255 
100 243 -32.3838 0.142786 -0.724615 0.6742 114 50 16 255 
101 25 -53.317 -0.173487 0.415482 0.892904 183 74 21 255 
101 26 -53.317 -0.203966 0.463648 0.862223 183 74 21 255 
101 27 -54.0069 -0.207455 0.352556 0.912506 186 73 21 255 
101 28 -53.6895 -0.13181 -0.0529434 0.98986 185 73 21 255 
101 29 -53.6895 -0.168823 0.228871 0.958706 185 73 21 255 
101 30 -54.3932 -0.168162 0.245292 0.954753 193 76 22 255 
101 31 -54.3932 -0.175965 0.0629863 0.982379 193 76 22 255 
101 32 -54.3932 -0.218795 0.206757 0.953614 193 76 22 255 
101 33 -55.0944 -0.184071 0.239084 0.953392 200 78 24 255 
101 34 -55.2664 -0.171384 0.0923399 0.980868 198 78 24 255 
101 35 -55.2664 -0.129686 -0.00762215 0.991526 198 78 24 255 
101 36 -55.0072 -0.118536 0.0240794 0.992658 201 81 25 255 
101 37 -55.3383 -0.0985686 0.0971081 0.990381 201 78 23 255 
101 38 -55.3383 -0.0957305 0.0584042 0.993692 201 78 23 255 
101 39 -55.3313 -0.0803087 0.0133797 0.99668 197 75 23 255 
101 40 -55.3313 -0.0810267 -0.033118 0.996162 197 75 23 255 
101 41 -55.3365 -0.0410053 -0.027953 0.998768 195 73 23 255 
101 42 -55.3365 -0.0358938 -0.166309 0.98542 195 73 23 255 
101 43 -55.3365 -0.0674365 -0.258755 0.963586 195 73 23 255 
101 44 -54.7846 -0.10366 -0.176205 0.97888 188 70 22 255 
101 45 -54.4493 -0.0534084 -0.134895 0.989419 187 68 21 255 
101 46 -54.4493 -0.0546646 -0.319303 0.946075 187 68 21 255 
101 47 -53.8105 -0.063758 -0.441063 0.895208 179 62 21 255 
101 48 -53.3243 -0.103168 -0.223251 0.969286 179 61 19 255 
101 49 -53.3243 -0.0615861 -0.479815 0.875205 179 61 19 255 
101 50 -52.1461 -0.168009 -0.478465 0.861884 166 56 17 255 
101 51 -52.1461 -0.124914 -0.273446 0.953742 166 56 17 255 
101 52 -52.1461 -0.184399 -0.424339 0.886529 166 56 17 255 
101 53 -50.9018 -0.127622 -0.510244 0.850508 156 52 16 255 
101 54 -50.9018 0.0247995 -0.544289 0.838531 156 52 16 255 
101 55 -49.6317 -0.131685 -0.535923 0.833934 156 48 16 255 
101 56 -49.6317 -0.0873118 -0.634983 0.767576 156 48 16 255 
101 57 -48.1316 0.260429 -0.415397 0.871563 154 51 16 255 
101 58 -48.1316 0.123608 -0.365414 0.922602 154 51 16 255 
101 59 -48.1316 0.231361 -0.645459 0.727912 154 51 16 255 
101 60 -46.4837 0.203689 -0.485253 0.850317 156 52 16 255 
101 61 -46.4837 -0.00496092 -0.573951 0.818875 156 52 16 255 
101 62 -45.0847 0.0504624 -0.571703 0.818907 163 56 18 255 
101 63 -45.0847 0.175845 -0.579194 0.795999 163 56 18 255 
101 64 -43.919 -0.0431059 -0.451089 0.891438 169 59 18 255 
101 65 -43.919 0.138522 -0.328434 0.934314 169 59 18 255 
101 66 -43.4006 0.379631 -0.33077 0.863986 180 65 20 255 
101 67 -43.4006 0.422594 -0.19098 0.885969 180 65 20 255 
101 68 -43.4006 0.519314 -0.446239 0.728823 180 65 20 255 
101 69 -41.4682 0.401823 -0.325201 0.856027 181 65 19 255 
101 70 -41.4682 0.568357 -0.251568 0.78338 181 65 19 255 
101 71 -41.9802 0.595082 -0.171248 0.785208 189 70 21 255 
101 72 -40.7788 0.589935 -0.114516 0.799289 183 67 20 255 
101 73 -40.7788 0.588625 -0.284316 0.756759 183 67 20 255 
101 74 -40.0425 0.519571 -0.0759546 0.851045 179 66 19 255 
101 75 -40.0425 0.554965 -0.00249007 0.83187 179 66 19 255 
101 76 -41.0417 0.518598 0.0803714 0.851232 186 69 21 255 
101 77 -41.0417 0.630262 0.0249547 0.775982 186 69 21 255 
101 78 -40.8633 0.612618 0.0316806 0.789744 184 67 20 255 
101 79 -40.8633 0.690958 0.0988093 0.716111 184 67 20 255 
101 80 -40.8633 0.774569 0.1813 0.605948 184 67 20 255 
101 81 -41.4873 0.783886 0.190175 0.591064 197 80 22 255 
101 82 -41.4873 0.85898 0.125898 0.496288 197 80 22 255 
101 83 -41.4873 0.848212 0.200712 0.490155 197 80 22 255 
101 84 -41.0443 0.886654 0.184478 0.424042 184 73 20 255 
101 85 -42.7684 0.858127 0.184383 0.479188 192 75 22 255 
101 86 -42.7684 0.858685 0.274671 0.432683 192 75 22 255 
101 87 -44.0565 0.884259 0.293114 0.363551 199 79 21 255 
101 88 -44.0565 0.864285 0.254338 0.433962 199 79 21 255 
101 89 -45.7284 0.648153 0.302204 0.698978 206 83 24 255 
101 90 -45.3721 0.707847 0.405681 0.578252 209 89 25 255 
101 91 -45.3721 0.86746 0.252823 0.428478 209 89 25 255 
101 92 -47.8443 0.614035 0.10848 0.781789 206 88 26 255 
101 93 -47.8443 0.747295 0.407309 0.525024 206 88 26 255 
101 94 -46.4666 0.633941 0.193915 0.748676 198 80 24 255 
101 95 -47.9467 0.774782 0.361577 0.518627 197 82 24 255 
101 96 -47.9467 0.58743 0.628812 0.509432 197 82 24 255 
101 97 -49.9422 0.638659 0.532652 0.555335 197 81 24 255 
101 98 -49.9422 0.684399 0.366656 0.630208 197 81 24 255 
101 99 -52.1831 0.616073 0.345567 0.70784 199 84 25 255 
101 100 -51.9123 0.74342 0.200202 0.638158 192 77 23 255 
101 101 -51.9123 0.661236 0.267579 0.700834 192 77 23 255 
101 102 -51.6984 0.508781 0.478452 0.715699 193 79 22 255 
101 103 -53.2629 0.596837 0.440386 0.670705 191 80 23 255 
101 104 -52.6064 0.4018 0.523065 0.751639 191 82 23 255 
101 105 -54.1263 0.651389 0.283304 0.703869 194 83 23 255 
101 106 -54.1263 0.825164 0.271447 0.495399 194 83 23 255 
101 107 -55.4187 0.542948 0.421027 0.726597 188 79 21 255 
101 108 -55.4187 0.678005 0.328121 0.657757 188 79 21 255 
101 109 -57.0202 0.649961 0.0655634 0.757134 184 76 21 255 
101 110 -56.2447 0.468782 0.179091 0.864968 185 75 21 255 
101 111 -56.2447 0.190258 -0.190258 0.963122 185 75 21 255 
101 112 -58.4618 0.628669 0.440687 0.640757 185 74 21 255 
101 113 -58.4618 0.425636 -0.127313 0.895894 185 74 21 255 
101 114 -58.4618 0.780676 0.323389 0.534757 185 74 21 255 
101 115 -60.2369 0.574829 0.421407 0.701418 186 75 21 255 
101 116 -60.2369 0.516402 0.251928 0.818451 186 75 21 255 
101 117 -60.9641 0.64141 0.395446 0.657431 182 73 20 255 
101 118 -60.9641 0.751596 0.31243 0.58094 182 73 20 255 
101 119 -62.2211 0.799995 0.238831 0.550425 175 68 19 255 
101 120 -62.2211 0.731204 0.333044 0.595333 175 68 19 255 
101 121 -62.2211 0.647584 0.411235 0.641499 175 68 19 255 
101 122 -64.9784 0.660398 0.422172 0.621003 175 66 18 255 
101 123 -64.9784 0.690122 0.347749 0.634668 175 66 18 255 
101 124 -65.4422 0.709833 0.336766 0.618648 175 69 19 255 
101 125 -66.6599 0.741768 0.20277 0.639269 177 68 19 255 
101 126 -66.6599 0.71286 0.32206 0.622984 177 68 19 255 
101 127 -67.032 0.74337 0.441965 0.502063 180 71 20 255 
101 128 -69.2245 0.365804 0.175587 0.913978 182 70 19 255 
101 129 -68.5716 0.575341 0.373831 0.727484 182 69 21 255 
101 130 -69.7319 0.583493 0.297143 0.755806 185 71 20 255 
101 131 -69.7319 0.544614 0.448794 0.708505 185 71 20 255 
101 132 -70.9371 0.540224 0.380432 0.75062 191 71 21 255 
101 133 -70.9371 0.688153 0.246189 0.682522 191 71 21 255 
101 134 -70.9371 0.588076 0.157159 0.79339 191 71 21 255 
101 135 -71.7629 0.530666 0.0601818 0.845442 194 73 21 255 
101 136 -71.7629 0.633229 0.0763862 0.770186 194 73 21 255 
101 137 -71.5204 0.65101 0.122044 0.749194 202 76 22 255 
101 138 -71.5204 0.690728 -0.0892278 0.717588 202 76 22 255 
101 139 -71.5204 0.616951 -0.152473 0.77209 202 76 22 255 
101 140 -70.9501 0.704298 -0.240922 0.667773 199 74 22 255 
101 141 -69.7752 0.62425 -0.375167 0.685246 188 70 21 255 
101 142 -69.7752 0.686031 -0.223932 0.692255 188 70 21 255 
101 143 -69.6387 0.672495 -0.139573 0.726822 175 62 18 255 
101 144 -54.0284 0.303078 -0.89537 0.326278 126 41 12 255 
101 145 -60.3932 0.240137 -0.935819 -0.258024 0 0 0 255 
101 146 -65.6741 0.557528 -0.652178 0.51364 130 42 13 255 
101 147 -66.0918 0.575313 -0.644956 0.503038 130 41 13 255 
101 148 -50.5838 0.356748 -0.490443 0.795108 64 19 5 255 
101 149 -49.4401 0.393389 -0.389786 0.832654 71 21 6 255 
101 150 -48.9198 0.267284 -0.201931 0.942222 92 29 9 255 
101 151 -48.9198 0.357412 -0.324632 0.875712 92 29 9 255 
101 152 -48.648 0.360045 -0.264936 0.894526 119 38 11 255 
101 153 -48.648 0.554318 -0.209767 0.805437 119 38 11 255 
101 154 -47.443 0.47492 -0.154411 0.866377 131 39 13 255 
101 155 -47.443 0.406645 -0.0461412 0.912421 131 39 13 255 
101 156 -48.0637 0.339697 -0.153767 0.92788 125 35 11 255 
101 157 -47.4962 0.207661 -0.0697099 0.975714 124 38 12 255 
101 158 -47.4962 0.0975893 -0.0147207 0.995118 124 38 12 255 
101 159 -47.6253 0.0838725 0.11903 0.989342 121 43 13 255 
101 160 -47.6253 0.0835474 0.133676 0.987497 121 43 13 255 
101 161 -47.8895 0.0842539 0.0719073 0.993846 121 45 14 255 
101 162 -47.8895 0.0903113 0.125865 0.987928 121 45 14 255 
101 163 -48.0731 0.177547 0.156516 0.971586 128 49 16 255 
101 164 -48.0731 0.190657 0.173356 0.966229 128 49 16 255 
101 165 -48.5066 0.144549 0.25379 0.956398 134 53 17 255 
101 166 -48.5066 0.218702 0.231738 0.947875 134 53 17 255 
101 167 -49.2554 0.20008 0.263194 0.943767 148 60 18 255 
101 168 -49.2554 0.177 0.325413 0.928858 148 60 18 255 
101 169 -49.2976 0.168971 0.440869 0.881523 153 63 18 255 
101 170 -50.1694 0.234688 0.435054 0.869281 168 64 19 255 
101 171 -50.1694 0.311814 0.410695 0.856797 168 64 19 255 
101 172 -51.4213 0.392695 0.263345 0.881158 164 54 16 255 
101 173 -51.4213 0.306891 0.152168 0.939502 164 54 16 255 
101 174 -51.3676 0.274713 0.100295 0.956281 155 47 14 255 
101 175 -51.3676 0.234974 -0.0389007 0.971223 155 47 14 255 
101 176 -51.1673 0.183054 -0.100226 0.977981 145 41 13 255 
101 177 -51.1673 0.267962 -0.0906861 0.959152 145 41 13 255 
101 178 -50.9143 0.22449 -0.259954 0.939163 133 35 12 255 
101 179 -50.9143 0.215334 -0.241488 0.946211 133 35 12 255 
101 180 -50.6777 0.206964 -0.295351 0.932702 126 32 11 255 
101 181 -49.7547 0.230694 -0.403563 0.885391 123 31 9 255 
101 182 -49.6923 0.137553 -0.401508 0.905467 121 31 10 255 
101 183 -49.0406 0.137066 -0.631941 0.7628 120 30 10 255 
101 184 -47.9066 0.334782 -0.642688 0.68911 108 25 8 255 
101 185 -47.9066 0.152608 -0.578192 0.801501 108 25 8 255 
101 186 -46.501 0.102461 -0.884447 0.455253 99 24 8 255 
101 187 -43.2393 -0.0267009 -0.0105618 0.999588 83 12 4 255 
101 188 -43.2393 0.000177801 0.0431603 0.999068 83 12 4 255 
101 189 -43.4777 0.0561268 0.314884 0.947469 107 23 7 255 
101 190 -44.0091 0.0433932 0.393622 0.918248 134 30 11 255 
101 191 -44.0091 0.107473 0.295757 0.949198 134 30 11 255 
101 192 -44.5808 0.147412 0.275623 0.949896 159 49 17 255 
101 193 -44.9149 0.077894 0.135332 0.987734 167 48 16 255 
101 194 -44.9619 0.117038 0.0419113 0.992243 178 48 16 255 
101 195 -44.9619 0.161284 -0.00332108 0.986902 178 48 16 255 
101 196 -44.7109 0.213719 -0.0828704 0.973374 178 47 16 255 
101 197 -44.7109 0.274955 -0.142132 0.950894 178 47 16 255 
101 198 -44.316 0.166582 -0.426701 0.888919 168 42 14 255 
101 199 -44.0638 0.227982 -0.319112 0.919887 160 41 14 255 
101 200 -44.0638 0.279732 -0.340078 0.897829 160 41 14 255 
101 201 -42.8772 0.244185 -0.540574 0.80508 156 45 14 255 
101 202 -42.1524 0.16235 -0.497935 0.851882 143 45 14 255 
101 203 -42.1524 0.0768558 -0.603363 0.793755 143 45 14 255 
101 204 -41.0035 0.176919 -0.712165 0.679353 123 42 13 255 
101 205 -40.2908 0.306354 -0.803533 0.510375 116 40 13 255 
101 206 -38.16 0.247273 -0.771273 0.58651 109 39 12 255 
101 207 -37.0606 0.113318 -0.724307 0.680101 107 35 11 255 
101 208 -36.5219 0.233672 -0.744662 0.625201 109 35 11 255 
101 209 -35.0765 0.0820117 -0.512923 0.854508 131 41 11 255 
101 210 -35.0765 0.144869 -0.314163 0.938251 131 41 11 255 
101 211 -34.5268 0.149049 -0.246319 0.957659 161 52 15 255 
101 212 -34.5268 0.122816 0.0270754 0.99206 161 52 15 255 
101 213 -34.5408 0.188379 0.0299421 0.98164 174 59 16 255 
101 214 -34.5408 0.147652 0.129071 0.980581 174 59 16 255 
101 215 -34.8862 0.13891 0.129854 0.981755 181 66 19 255 
101 216 -34.8862 0.0808419 0.100372 0.99166 181 66 19 255 
101 217 -34.8862 0.25551 0.165564 0.952525 181 66 19 255 
101 218 -35.5545 0.262177 0.177499 0.948555 166 59 17 255 
101 219 -35.5545 0.142704 0.113577 0.983227 166 59 17 255 
101 220 -35.5047 0.0692542 0.111455 0.991353 169 62 17 255 
101 221 -35.8865 0.151438 0.202576 0.967486 159 62 17 255 
101 222 -35.8865 0.135023 0.237189 0.962034 159 62 17 255 
101 223 -36.3693 0.176594 0.0306634 0.983806 150 62 17 255 
101 224 -35.9775 0.203856 0.0584218 0.977256 164 65 17 255 
101 225 -36.3898 0.23313 0.130457 0.963655 153 64 18 255 
101 226 -36.3898 0.22068 0.0319367 0.974823 153 64 18 255 
101 227 -36.3898 0.201276 -0.0124432 0.979456 153 64 18 255 
101 228 -36.3898 0.24728 -0.0304314 0.968466 153 64 18 255 
101 229 -36.2834 0.266676 -0.0153026 0.963665 141 58 17 255 
101 230 -36.2834 0.207792 -0.00592608 0.978155 141 58 17 255 
101 231 -36.2834 0.17591 -0.0510679 0.983081 141 58 17 255 
101 232 -36.0969 0.10722 -0.104147 0.988766 132 57 17 255 
101 233 -36.0969 0.0912774 -0.0172206 0.995677 132 57 17 255 
101 234 -36.247 0.140646 -0.181494 0.973282 137 58 18 255 
101 235 -35.5634 0.165227 -0.248072 0.954547 130 58 17 255 
101 236 -35.7606 0.120444 -0.0497057 0.991475 131 58 18 255 
101 237 -35.7606 0.0853688 -0.268728 0.959426 131 58 18 255 
101 238 -35.1503 0.132955 -0.273299 0.952696 128 58 17 255 
101 239 -35.1503 0.0701164 -0.479381 0.874801 128 58 17 255 
101 240 -34.173 0.0388228 -0.373414 0.926852 114 53 17 255 
101 241 -34.173 0.0416132 0 0.999134 114 53 17 255 
101 242 -34.173 0.0835326 -0.411449 0.907597 114 53 17 255 
101 243 -32.9623 0.0651408 -0.742465 0.66671 112 49 15 255 
102 25 -52.2325 -0.210987 0.244025 0.946539 178 72 20 255 
102 26 -52.6243 -0.284159 0.42658 0.858652 179 72 21 255 
102 27 -53.6895 -0.329745 0.263164 0.906649 185 73 21 255 
102 28 -53.6895 -0.173524 0.0907509 0.980639 185 73 21 255 
102 29 -53.6895 -0.092065 0.267411 0.959174 185 73 21 255 
102 30 -54.3932 -0.0703999 0.201686 0.976917 193 76 22 255 
102 31 -54.3932 -0.198207 0 0.98016 193 76 22 255 
102 32 -54.3932 -0.178503 0.211192 0.961007 193 76 22 255 
102 33 -54.7933 -0.189681 0.263004 0.945965 199 80 24 255 
102 34 -54.7933 -0.20538 0.0490573 0.977452 199 80 24 255 
102 35 -55.0072 -0.158697 0.0201116 0.987122 201 81 25 255 
102 36 -55.0072 -0.153119 0.0634919 0.986166 201 81 25 255 
102 37 -55.0072 -0.148366 0.0731587 0.986223 201 81 25 255 
102 38 -55.3383 -0.151883 0.0793849 0.985205 201 78 23 255 
102 39 -55.3313 -0.165682 0.0352019 0.985551 197 75 23 255 
102 40 -55.3313 -0.147777 0.0142599 0.988918 197 75 23 255 
102 41 -55.3313 -0.157206 -0.0234065 0.987288 197 75 23 255 
102 42 -55.3365 -0.191269 -0.194708 0.962032 195 73 23 255 
102 43 -54.5868 -0.186064 -0.278985 0.942098 189 70 23 255 
102 44 -54.5868 -0.0995939 -0.176447 0.979259 189 70 23 255 
102 45 -54.4493 -0.0819606 -0.127394 0.98846 187 68 21 255 
102 46 -54.4493 -0.0725079 -0.33079 0.940915 187 68 21 255 
102 47 -53.8109 -0.0397786 -0.446382 0.893958 182 63 20 255 
102 48 -53.3243 -0.0311773 -0.241038 0.970015 179 61 19 255 
102 49 -53.3243 0.0843396 -0.463361 0.882147 179 61 19 255 
102 50 -52.4497 0.0333436 -0.560047 0.827789 174 56 18 255 
102 51 -51.6286 -0.00407674 -0.288235 0.957551 170 58 18 255 
102 52 -51.6286 -0.0324166 -0.552833 0.832661 170 58 18 255 
102 53 -50.8434 -0.0138777 -0.459117 0.888268 164 55 17 255 
102 54 -50.8434 -0.0860223 -0.563837 0.821394 164 55 17 255 
102 55 -49.6317 -0.133224 -0.640838 0.756028 156 48 16 255 
102 56 -49.6317 -0.121582 -0.435 0.892184 156 48 16 255 
102 57 -48.6728 -0.135641 -0.577112 0.805322 161 54 17 255 
102 58 -48.6728 -0.0163765 -0.419121 0.907783 161 54 17 255 
102 59 -47.5199 -0.0230238 -0.621372 0.783178 160 53 17 255 
102 60 -46.4837 0.155857 -0.418269 0.894852 156 52 16 255 
102 61 -46.4837 0.118861 -0.640259 0.758908 156 52 16 255 
102 62 -45.4586 0.0679914 -0.567254 0.820731 164 55 18 255 
102 63 -45.4586 0.110015 -0.594149 0.796796 164 55 18 255 
102 64 -43.919 0.145768 -0.516894 0.843548 169 59 18 255 
102 65 -44.1303 0.164041 -0.176709 0.970497 180 66 20 255 
102 66 -43.4006 0.157241 -0.258088 0.95324 180 65 20 255 
102 67 -43.4006 0.142944 -0.187214 0.971863 180 65 20 255 
102 68 -43.4006 0.0610273 -0.295758 0.953312 180 65 20 255 
102 69 -42.5317 0.440412 -0.427842 0.789296 185 66 20 255 
102 70 -42.5317 0.464988 0.0629293 0.883078 185 66 20 255 
102 71 -41.9802 0.548694 -0.236065 0.802002 189 70 21 255 
102 72 -41.9802 0.630128 -0.135965 0.764495 189 70 21 255 
102 73 -41.8367 0.624427 -0.0294129 0.780529 190 69 20 255 
102 74 -41.8367 0.70689 -0.180224 0.683978 190 69 20 255 
102 75 -41.8367 0.466208 -0.211089 0.859123 190 69 20 255 
102 76 -41.0417 0.442683 -0.144035 0.885034 186 69 21 255 
102 77 -41.0417 0.521596 -0.108169 0.846308 186 69 21 255 
102 78 -40.8633 0.600073 0.154582 0.784867 184 67 20 255 
102 79 -40.8633 0.683028 0.191605 0.704813 184 67 20 255 
102 80 -42.5644 0.735677 0.265118 0.623291 207 87 24 255 
102 81 -42.5644 0.671393 0.121281 0.73111 207 87 24 255 
102 82 -42.5644 0.805678 0.139522 0.575688 207 87 24 255 
102 83 -43.8705 0.659184 0.211637 0.721586 215 88 24 255 
102 84 -43.8705 0.802676 0.196517 0.563109 215 88 24 255 
102 85 -45.2167 0.678974 0.309555 0.66571 214 92 26 255 
102 86 -42.7684 0.829452 0.338404 0.444401 192 75 22 255 
102 87 -45.7349 0.731997 0.0691893 0.677785 206 91 24 255 
102 88 -45.7284 0.679554 0.251804 0.689059 206 83 24 255 
102 89 -45.7284 0.689145 0.338294 0.64081 206 83 24 255 
102 90 -46.9424 0.694509 0.463762 0.550074 208 85 25 255 
102 91 -48.1906 0.356229 0.206438 0.911309 208 84 25 255 
102 92 -47.8443 0.551409 0.313886 0.772932 206 88 26 255 
102 93 -47.8443 0.792074 0.219836 0.569466 206 88 26 255 
102 94 -49.5672 0.681879 0.397589 0.613974 202 84 26 255 
102 95 -49.5672 0.802411 0.369478 0.468639 202 84 26 255 
102 96 -51.1789 0.565517 0.442126 0.696215 201 84 23 255 
102 97 -51.1789 0.673379 0.372857 0.638388 201 84 23 255 
102 98 -52.1831 0.135721 0.277805 0.951002 199 84 25 255 
102 99 -52.1831 0.434225 0.260255 0.86239 199 84 25 255 
102 100 -51.9123 0.470118 0.241554 0.848905 192 77 23 255 
102 101 -53.2871 0.72382 0.252918 0.641963 195 81 23 255 
102 102 -53.2629 0.705017 0.342597 0.62095 191 80 23 255 
102 103 -53.2629 0.671471 0.214864 0.709197 191 80 23 255 
102 104 -54.8264 0.583283 0.384594 0.71545 195 81 23 255 
102 105 -54.1263 0.586289 0.561359 0.584072 194 83 23 255 
102 106 -56.08 0.613951 0.454629 0.645273 195 82 23 255 
102 107 -56.08 0.6508 0.410682 0.638592 195 82 23 255 
102 108 -57.7387 0.642923 0.440066 0.626891 191 79 22 255 
102 109 -57.0202 0.650984 0.292567 0.700446 184 76 21 255 
102 110 -57.0202 0.751112 0.239369 0.615251 184 76 21 255 
102 111 -59.0809 0.540845 0.328573 0.774291 188 76 21 255 
102 112 -58.4618 0.145285 -0.121715 0.981875 185 74 21 255 
102 113 -58.4618 0.56984 0.395338 0.72041 185 74 21 255 
102 114 -60.6938 0.585404 0.336777 0.737485 185 71 20 255 
102 115 -60.2369 0.637096 0.366808 0.677909 186 75 21 255 
102 116 -60.2369 0.593819 0.441534 0.672626 186 75 21 255 
102 117 -62.2507 0.630794 0.573722 0.522438 178 69 20 255 
102 118 -62.2507 0.738012 0.437662 0.513605 178 69 20 255 
102 119 -64.0439 0.620652 0.369555 0.691535 173 64 18 255 
102 120 -64.0439 0.6087 0.511659 0.606374 173 64 18 255 
102 121 -65.5005 0.382966 0.590064 0.710747 178 67 18 255 
102 122 -66.097 0.546837 0.459607 0.699808 175 68 19 255 
102 123 -66.097 0.652668 0.295107 0.697809 175 68 19 255 
102 124 -67.2004 0.541273 0.479341 0.690837 177 69 19 255 
102 125 -67.8432 0.571359 0.474059 0.669938 178 68 19 255 
102 126 -67.8432 0.725291 0.325453 0.606657 178 68 19 255 
102 127 -69.2245 0.39953 0.33641 0.852763 182 70 19 255 
102 128 -69.2245 0.281534 0.0434673 0.958566 182 70 19 255 
102 129 -69.2245 0.426134 0.336374 0.839799 182 70 19 255 
102 130 -70.5939 0.410415 0.561991 0.71814 188 73 20 255 
102 131 -70.5939 0.518656 0.316842 0.794108 188 73 20 255 
102 132 -71.609 0.393787 0.367146 0.842696 192 75 20 255 
102 133 -70.9371 0.44409 0.232974 0.865163 191 71 21 255 
102 134 -72.3016 0.525397 0.162968 0.835104 195 75 22 255 
102 135 -71.7629 0.524012 0.288737 0.801276 194 73 21 255 
102 136 -71.7629 0.534415 0.107849 0.838313 194 73 21 255 
102 137 -72.8161 0.605187 0.00354976 0.796075 203 73 21 255 
102 138 -72.8161 0.513192 -0.143764 0.846148 203 73 21 255 
102 139 -72.1428 0.506259 -0.163412 0.846757 203 74 23 255 
102 140 -72.1428 0.555748 -0.163507 0.815113 203 74 23 255 
102 141 -72.1428 0.511564 -0.184915 0.839112 203 74 23 255 
102 142 -71.4458 0.694162 -0.387034 0.606914 189 68 21 255 
102 143 -71.4458 0.611152 -0.43 0.664525 189 68 21 255 
102 144 -55.7804 0.382807 -0.90923 -0.163587 99 31 10 255 
102 145 -59.6464 0.340541 -0.895539 -0.286428 0 0 0 255 
102 146 -51.8274 0.277302 -0.674468 0.684249 95 30 8 255 
102 147 -50.5838 0.324247 -0.548899 0.770438 64 19 5 255 
102 148 -50.5838 0.343648 -0.339171 0.875711 64 19 5 255 
102 149 -49.4401 0.394042 -0.402063 0.826484 71 21 6 255 
102 150 -49.9601 0.51187 -0.0827544 0.855068 70 20 6 255 
102 151 -48.9198 0.546262 -0.330057 0.769845 92 29 9 255 
102 152 -48.648 0.654626 -0.120849 0.746231 119 38 11 255 
102 153 -48.648 0.681036 -0.0945684 0.726117 119 38 11 255 
102 154 -49.0043 0.685338 -0.167837 0.70862 123 37 12 255 
102 155 -49.0043 0.461071 -0.233247 0.85616 123 37 12 255 
102 156 -48.0637 0.404658 -0.277204 0.871441 125 35 11 255 
102 157 -48.0637 0.243997 -0.148472 0.958343 125 35 11 255 
102 158 -47.4962 0.283981 -0.0850728 0.955048 124 38 12 255 
102 159 -47.6253 0.230115 0.0945104 0.968563 121 43 13 255 
102 160 -48.1225 0.197652 0.150562 0.968641 122 43 14 255 
102 161 -47.8895 0.207882 0.0685495 0.975749 121 45 14 255 
102 162 -47.8895 0.245566 0.180691 0.952391 121 45 14 255 
102 163 -48.5991 0.285831 0.150358 0.946411 122 47 14 255 
102 164 -48.5991 0.169409 0.0573423 0.983876 122 47 14 255 
102 165 -48.5991 0.232953 0.193502 0.953043 122 47 14 255 
102 166 -49.2555 0.13985 0.333872 0.932187 148 56 16 255 
102 167 -49.2554 0.140727 0.22416 0.964338 148 60 18 255 
102 168 -49.2554 0.260369 0.266809 0.927912 148 60 18 255 
102 169 -50.2759 0.153043 0.396354 0.905252 168 62 19 255 
102 170 -50.2759 0.218884 0.420162 0.880656 168 62 19 255 
102 171 -51.2156 0.112803 0.486955 0.866112 168 60 17 255 
102 172 -51.2156 0.198012 0.37027 0.907575 168 60 17 255 
102 173 -51.4213 0.103212 0.169574 0.980098 164 54 16 255 
102 174 -51.8028 0.19988 0.0517599 0.978452 163 50 16 255 
102 175 -51.7582 0.234081 -0.0400274 0.971393 151 44 14 255 
102 176 -51.7582 0.226115 -0.109454 0.967932 151 44 14 255 
102 177 -51.5595 0.19162 -0.110561 0.975222 141 38 12 255 
102 178 -51.5595 0.25195 -0.176068 0.951589 141 38 12 255 
102 179 -50.6777 0.234103 -0.270456 0.933836 126 32 11 255 
102 180 -50.6777 0.24396 -0.317557 0.916319 126 32 11 255 
102 181 -50.6777 0.278327 -0.316008 0.907013 126 32 11 255 
102 182 -49.6923 0.300215 -0.398706 0.866547 121 31 10 255 
102 183 -49.6923 0.252859 -0.627106 0.73675 121 31 10 255 
102 184 -47.9066 0.194911 -0.718563 0.667591 108 25 8 255 
102 185 -47.9066 0.303294 -0.628778 0.715997 108 25 8 255 
102 186 -45.1871 0.136854 -0.905203 0.402341 86 19 6 255 
102 187 -43.2393 0.329662 -0.488191 0.80808 83 12 4 255 
102 188 -43.3525 0.172894 0.231741 0.95729 82 13 5 255 
102 189 -43.3525 0.122185 0.297553 0.946854 82 13 5 255 
102 190 -44.0589 0.139072 0.40852 0.902092 119 23 8 255 
102 191 -44.7147 0.149959 0.306352 0.940032 151 40 14 255 
102 192 -44.7147 0.136231 0.301642 0.943638 151 40 14 255 
102 193 -44.9149 0.187558 0.183748 0.964914 167 48 16 255 
102 194 -44.9619 0.171479 0.0532238 0.983749 178 48 16 255 
102 195 -45.3093 0.20178 -0.00475202 0.979419 177 45 16 255 
102 196 -45.3093 0.213686 -0.0846082 0.973232 177 45 16 255 
102 197 -45.0505 0.273252 -0.157082 0.94903 174 42 15 255 
102 198 -45.0505 0.237135 -0.348323 0.906884 174 42 15 255 
102 199 -44.0638 0.250891 -0.307106 0.918008 160 41 14 255 
102 200 -44.0638 0.251623 -0.376248 0.891697 160 41 14 255 
102 201 -43.6854 0.407675 -0.422397 0.809557 156 42 13 255 
102 202 -43.0103 0.179012 -0.612206 0.770168 151 43 13 255 
102 203 -41.9874 0.156617 -0.500752 0.851304 135 42 14 255 
102 204 -41.9874 0.151636 -0.664457 0.731781 135 42 14 255 
102 205 -40.2908 0.18127 -0.82815 0.530385 116 40 13 255 
102 206 -38.2051 0.173623 -0.825213 0.537474 103 37 11 255 
102 207 -38.2051 0.201912 -0.731915 0.650794 103 37 11 255 
102 208 -36.3053 0.104581 -0.695798 0.710582 108 35 10 255 
102 209 -35.2757 0.102554 -0.558599 0.823073 123 38 11 255 
102 210 -35.2757 0.177595 -0.382966 0.90653 123 38 11 255 
102 211 -34.6946 0.0730541 -0.242353 0.967434 140 42 11 255 
102 212 -34.5268 0.0315798 -0.0308549 0.999025 161 52 15 255 
102 213 -34.5952 0.045834 0.133207 0.990028 158 51 14 255 
102 214 -34.9496 0.0884492 0.164339 0.98243 172 59 16 255 
102 215 -34.8862 0.0542875 0.0475918 0.997391 181 66 19 255 
102 216 -34.8862 0.134326 0.24539 0.960073 181 66 19 255 
102 217 -35.5545 0.180251 0.262676 0.947898 166 59 17 255 
102 218 -35.5545 0.201068 0.0728755 0.976863 166 59 17 255 
102 219 -35.5545 0.197515 0.0792772 0.977089 166 59 17 255 
102 220 -35.5545 0.236266 0.175819 0.95565 166 59 17 255 
102 221 -35.8865 0.274071 0.200962 0.940478 159 62 17 255 
102 222 -36.3693 0.146343 0.136862 0.979721 150 62 17 255 
102 223 -36.3693 0.14204 0.0959243 0.985202 150 62 17 255 
102 224 -36.3693 0.119589 0.0771671 0.98982 150 62 17 255 
102 225 -36.6965 0.166755 0.150575 0.974433 154 62 18 255 
102 226 -36.6965 0.115075 0 0.993357 154 62 18 255 
102 227 -36.6965 0.156431 -0.0136765 0.987594 154 62 18 255 
102 228 -36.7181 0.177797 0.0169156 0.983922 148 59 18 255 
102 229 -36.7181 0.149902 -0.0178982 0.988539 148 59 18 255 
102 230 -36.7181 0.180192 -0.0810088 0.98029 148 59 18 255 
102 231 -36.4995 0.141207 -0.104051 0.984497 139 59 17 255 
102 232 -36.4995 0.12728 -0.143219 0.981472 139 59 17 255 
102 233 -36.247 0.0931749 -0.0414653 0.994786 137 58 18 255 
102 234 -36.247 0.11847 -0.0917602 0.988709 137 58 18 255 
102 235 -36.247 0.115843 -0.196677 0.973601 137 58 18 255 
102 236 -35.7606 0.0681996 -0.13443 0.988573 131 58 18 255 
102 237 -35.7606 0.10079 -0.206759 0.973187 131 58 18 255 
102 238 -35.1503 0.111606 -0.297397 0.948208 128 58 17 255 
102 239 -35.1503 0.0142994 -0.537405 0.843203 128 58 17 255 
102 240 -34.173 0.00135505 -0.365963 0.930629 114 53 17 255 
102 241 -34.173 0.0144953 0 0.999895 114 53 17 255 
102 242 -34.173 0 -0.447734 0.894167 114 53 17 255 
102 243 -32.9623 0.039266 -0.714252 0.698786 112 49 15 255 
103 25 -52.6243 -0.170573 0.288951 0.942026 179 72 21 255 
103 26 -52.6243 -0.053779 0.419449 0.906185 179 72 21 255 
103 27 -53.1937 -0.165877 0.313909 0.934851 187 75 22 255 
103 28 -53.1937 -0.13358 0.283532 0.949614 187 75 22 255 
103 29 -54.0228 -0.0919089 0.287456 0.953374 195 77 23 255 
103 30 -54.0228 -0.0711475 0.0665624 0.995242 195 77 23 255 
103 31 -54.0228 -0.184013 0.0231357 0.982652 195 77 23 255 
103 32 -54.0228 -0.184608 0.21487 0.959036 195 77 23 255 
103 33 -54.7933 -0.185252 0.214853 0.958916 199 80 24 255 
103 34 -54.7933 -0.185535 0.0974166 0.977797 199 80 24 255 
103 35 -54.7933 -0.186684 0.064551 0.980297 199 80 24 255 
103 36 -55.0072 -0.114826 0.0612786 0.991494 201 81 25 255 
103 37 -54.8952 -0.15526 0.0797497 0.984649 197 80 25 255 
103 38 -54.8952 -0.139077 0.0729785 0.987589 197 80 25 255 
103 39 -55.0543 -0.166518 0.011671 0.985969 196 76 23 255 
103 40 -55.0543 -0.146806 -0.0357449 0.988519 196 76 23 255 
103 41 -55.0016 -0.120987 -0.0167618 0.992513 197 75 23 255 
103 42 -55.0016 -0.11371 -0.187165 0.975725 197 75 23 255 
103 43 -54.5868 -0.0666853 -0.261427 0.962917 189 70 23 255 
103 44 -54.5868 -0.0258077 -0.0229993 0.999402 189 70 23 255 
103 45 -54.5868 -0.0488745 -0.161791 0.985614 189 70 23 255 
103 46 -54.0246 -0.0807816 -0.322612 0.943078 182 65 21 255 
103 47 -53.8109 -0.0246003 -0.397812 0.917137 182 63 20 255 
103 48 -53.3193 -0.0139976 -0.278061 0.960462 179 62 20 255 
103 49 -53.3243 -0.0527152 -0.419679 0.906141 179 61 19 255 
103 50 -52.4497 0.0142031 -0.533687 0.845563 174 56 18 255 
103 51 -52.4497 0.107477 -0.409597 0.905913 174 56 18 255 
103 52 -51.6286 0.0526495 -0.586969 0.807895 170 58 18 255 
103 53 -50.8434 -0.00860077 -0.389732 0.920888 164 55 17 255 
103 54 -50.8434 -0.110046 -0.540578 0.834065 164 55 17 255 
103 55 -49.6174 -0.0593977 -0.6379 0.767825 165 55 17 255 
103 56 -48.6728 0.0486651 -0.505365 0.861532 161 54 17 255 
103 57 -48.6728 0.0135257 -0.564832 0.825095 161 54 17 255 
103 58 -47.5199 -0.0928276 -0.428984 0.89853 160 53 17 255 
103 59 -47.5199 -0.000918524 -0.602789 0.7979 160 53 17 255 
103 60 -47.5199 0.0838031 -0.363612 0.927773 160 53 17 255 
103 61 -46.7262 0.113401 -0.611952 0.782723 162 54 17 255 
103 62 -45.4586 0.00283776 -0.532815 0.846227 164 55 18 255 
103 63 -45.4586 0.157137 -0.38 0.911542 164 55 18 255 
103 64 -44.1303 0.350705 -0.515253 0.781998 180 66 20 255 
103 65 -44.1303 0.321757 -0.32512 0.889252 180 66 20 255 
103 66 -44.1303 0.302996 -0.1697 0.937761 180 66 20 255 
103 67 -43.4006 0.249435 -0.24029 0.938106 180 65 20 255 
103 68 -43.4994 0.185178 -0.425316 0.885898 189 67 20 255 
103 69 -42.5317 0.262893 -0.219654 0.939489 185 66 20 255 
103 70 -42.9628 0.389548 -0.194877 0.900153 194 71 22 255 
103 71 -42.9628 0.408805 -0.10454 0.906614 194 71 22 255 
103 72 -41.9802 0.481731 -0.145039 0.864233 189 70 21 255 
103 73 -42.8686 0.487488 -0.144445 0.861099 194 72 21 255 
103 74 -41.8367 0.578279 0.0203047 0.815586 190 69 20 255 
103 75 -41.8367 0.748997 0.0150017 0.662404 190 69 20 255 
103 76 -41.0417 0.535685 -0.0136199 0.844308 186 69 21 255 
103 77 -42.7602 0.725771 0.173391 0.665726 197 76 22 255 
103 78 -42.7602 0.652926 0.293125 0.698402 197 76 22 255 
103 79 -42.7602 0.801695 0.25785 0.539257 197 76 22 255 
103 80 -43.4764 0.641652 0.0731634 0.763499 205 84 24 255 
103 81 -43.4764 0.704071 0.16088 0.691665 205 84 24 255 
103 82 -44.7099 0.461233 0.162819 0.872212 217 89 26 255 
103 83 -43.8705 0.607993 0.312221 0.729974 215 88 24 255 
103 84 -43.8705 0.84339 0.263924 0.468014 215 88 24 255 
103 85 -45.2167 0.715527 0.337676 0.611552 214 92 26 255 
103 86 -45.7349 0.575238 0.259961 0.775578 206 91 24 255 
103 87 -45.7349 0.629294 0.203534 0.750042 206 91 24 255 
103 88 -46.9166 0.719149 0.301894 0.625848 209 91 25 255 
103 89 -45.7284 0.588251 0.276591 0.759907 206 83 24 255 
103 90 -48.1906 0.524901 0.27835 0.804363 208 84 25 255 
103 91 -48.1906 0.619207 0.456414 0.638959 208 84 25 255 
103 92 -48.1906 0.600452 0.364851 0.711577 208 84 25 255 
103 93 -49.5672 0.669722 0.462909 0.580679 202 84 26 255 
103 94 -50.761 0.460781 0.446221 0.767182 203 87 26 255 
103 95 -50.761 0.555086 0.387119 0.736219 203 87 26 255 
103 96 -51.1789 0.562597 0.387992 0.730032 201 84 23 255 
103 97 -51.1789 0.504876 0.3192 0.802005 201 84 23 255 
103 98 -52.1831 0.504136 0.533896 0.678824 199 84 25 255 
103 99 -52.1831 0.598547 0.403 0.692338 199 84 25 255 
103 100 -53.2871 0.713146 0.358679 0.602306 195 81 23 255 
103 101 -53.2871 0.745258 0.273103 0.60828 195 81 23 255 
103 102 -54.8264 0.728413 0.256991 0.635115 195 81 23 255 
103 103 -54.8264 0.69884 0.315541 0.641916 195 81 23 255 
103 104 -54.8264 0.746134 0.193622 0.63702 195 81 23 255 
103 105 -56.08 0.588836 0.373553 0.71675 195 82 23 255 
103 106 -56.08 0.615424 0.408946 0.673808 195 82 23 255 
103 107 -56.08 0.498258 0.53085 0.685519 195 82 23 255 
103 108 -57.7387 0.547456 0.53879 0.64031 191 79 22 255 
103 109 -57.7387 0.616233 0.312977 0.722705 191 79 22 255 
103 110 -59.0809 0.754017 0.315192 0.576292 188 76 21 255 
103 111 -59.0809 0.576699 0.272812 0.770059 188 76 21 255 
103 112 -59.0809 0.663506 0.275454 0.695618 188 76 21 255 
103 113 -60.6938 0.448121 0.526339 0.722602 185 71 20 255 
103 114 -60.6938 0.492777 0.420976 0.761545 185 71 20 255 
103 115 -60.6938 0.699345 0.165347 0.695397 185 71 20 255 
103 116 -62.2507 0.713024 0.472812 0.517732 178 69 20 255 
103 117 -62.2507 0.574866 0.547566 0.608031 178 69 20 255 
103 118 -64.1231 0.564216 0.445936 0.694839 180 68 19 255 
103 119 -64.0439 0.565503 0.375986 0.734058 173 64 18 255 
103 120 -64.0439 0.256515 0.513287 0.818985 173 64 18 255 
103 121 -65.5005 0.370141 0.648944 0.664731 178 67 18 255 
103 122 -66.097 0.288133 0.562656 0.774854 175 68 19 255 
103 123 -67.2004 0.453231 0.443695 0.773121 177 69 19 255 
103 124 -67.2004 0.429155 0.465468 0.774058 177 69 19 255 
103 125 -67.8432 0.477582 0.471142 0.74158 178 68 19 255 
103 126 -69.4472 0.360647 0.506762 0.783024 183 67 20 255 
103 127 -69.4472 0.529163 0.330474 0.78152 183 67 20 255 
103 128 -69.7418 0.533649 0.205472 0.820366 179 64 19 255 
103 129 -69.7418 0.519896 0.315359 0.793887 179 64 19 255 
103 130 -70.5939 0.408872 0.47874 0.776937 188 73 20 255 
103 131 -71.609 0.196211 0.453531 0.869374 192 75 20 255 
103 132 -71.609 0.415221 0.396305 0.818861 192 75 20 255 
103 133 -72.3016 0.469744 0.310621 0.82635 195 75 22 255 
103 134 -72.3016 0.601979 0.203395 0.772174 195 75 22 255 
103 135 -72.3016 0.551584 0.100187 0.82808 195 75 22 255 
103 136 -73.2315 0.572732 0.194064 0.79644 199 78 22 255 
103 137 -72.8161 0.520439 0.225225 0.823661 203 73 21 255 
103 138 -72.8161 0.481465 -0.222874 0.847655 203 73 21 255 
103 139 -72.1428 0.493278 -0.139714 0.858579 203 74 23 255 
103 140 -72.1428 0.464623 -0.0491225 0.884145 203 74 23 255 
103 141 -72.7248 0.506206 -0.162855 0.846897 200 74 22 255 
103 142 -71.4458 0.389261 -0.298766 0.871329 189 68 21 255 
103 143 -71.4458 0.317 -0.329399 0.889386 189 68 21 255 
103 144 -55.4885 0.456975 -0.87709 -0.147944 122 38 12 255 
103 145 -58.5998 0.436072 -0.859639 -0.2662 0 0 0 255 
103 146 -59.546 0.521036 -0.788084 -0.327787 0 0 0 255 
103 147 -51.3337 0.333412 -0.408136 0.84986 29 6 3 255 
103 148 -50.6214 0.420091 -0.373868 0.82689 17 3 0 255 
103 149 -49.9601 0.469882 -0.129871 0.873124 70 20 6 255 
103 150 -50.4983 0.529028 -0.0119789 0.84852 77 23 7 255 
103 151 -50.4983 0.533625 -0.00560695 0.845702 77 23 7 255 
103 152 -50.3198 0.625701 -0.172561 0.760737 108 36 11 255 
103 153 -50.3198 0.460083 -0.314816 0.830189 108 36 11 255 
103 154 -49.0043 0.536929 -0.368206 0.759033 123 37 12 255 
103 155 -49.0043 0.411005 -0.412445 0.812997 123 37 12 255 
103 156 -48.0637 0.347662 -0.346377 0.871294 125 35 11 255 
103 157 -48.3227 0.443172 -0.187953 0.876511 126 37 11 255 
103 158 -48.3227 0.335065 -0.0400083 0.941345 126 37 11 255 
103 159 -48.1225 0.302933 -0.0194173 0.952814 122 43 14 255 
103 160 -48.1225 0.265705 0.0296893 0.963597 122 43 14 255 
103 161 -48.4947 0.205257 0.138921 0.968799 124 44 14 255 
103 162 -48.4947 0.219933 0.148681 0.964118 124 44 14 255 
103 163 -48.694 0.136276 0.120062 0.983369 126 46 15 255 
103 164 -48.5991 0.0904178 0.0495356 0.994671 122 47 14 255 
103 165 -48.5991 0.10976 0.303956 0.946342 122 47 14 255 
103 166 -49.2555 0.101842 0.268353 0.957922 148 56 16 255 
103 167 -49.2555 0.0818152 0.189565 0.978454 148 56 16 255 
103 168 -49.8155 0.0355664 0.415046 0.909105 160 61 18 255 
103 169 -50.2759 0.139628 0.371716 0.917786 168 62 19 255 
103 170 -50.2759 0.0294856 0.455367 0.889815 168 62 19 255 
103 171 -51.021 0.11556 0.462049 0.879293 169 61 18 255 
103 172 -51.2156 0.100335 0.33823 0.9357 168 60 17 255 
103 173 -51.8028 0.246412 0.16818 0.954461 163 50 16 255 
103 174 -51.8028 0.242765 0.0271165 0.969706 163 50 16 255 
103 175 -51.7582 0.215507 0.029282 0.976063 151 44 14 255 
103 176 -51.7582 0.17291 -0.115483 0.978144 151 44 14 255 
103 177 -51.5595 0.102659 -0.113391 0.988232 141 38 12 255 
103 178 -51.5595 0.146735 -0.123507 0.981435 141 38 12 255 
103 179 -51.6541 0.206439 -0.388624 0.897972 140 37 11 255 
103 180 -50.6777 0.222473 -0.235265 0.946127 126 32 11 255 
103 181 -50.973 0.178486 -0.38645 0.904875 128 34 11 255 
103 182 -50.1357 0.0904642 -0.435331 0.895714 120 29 9 255 
103 183 -50.1357 0.255453 -0.518066 0.816303 120 29 9 255 
103 184 -48.9676 0.201011 -0.745632 0.635317 110 26 9 255 
103 185 -47.1353 0.157603 -0.712613 0.683625 103 24 8 255 
103 186 -47.1353 0.13736 -0.859085 0.493058 103 24 8 255 
103 187 -45.1871 0.458685 -0.695713 0.552803 86 19 6 255 
103 188 -43.3525 0.258515 -0.0697445 0.963486 82 13 5 255 
103 189 -44.0589 0.183022 0.323993 0.928187 119 23 8 255 
103 190 -44.0589 0.131846 0.472628 0.871343 119 23 8 255 
103 191 -44.7283 0.101447 0.223188 0.969482 137 30 10 255 
103 192 -44.7147 0.024373 0.27311 0.961674 151 40 14 255 
103 193 -45.434 0.168361 0.2761 0.946268 168 43 15 255 
103 194 -45.434 0.145693 0.0455959 0.988279 168 43 15 255 
103 195 -45.3093 0.14431 0.020262 0.989325 177 45 16 255 
103 196 -45.3093 0.152605 -0.0600478 0.986461 177 45 16 255 
103 197 -45.0505 0.153329 -0.10724 0.982339 174 42 15 255 
103 198 -45.0505 0.216972 -0.321443 0.921736 174 42 15 255 
103 199 -44.4734 0.264329 -0.356196 0.896245 160 38 13 255 
103 200 -44.4734 0.295738 -0.3225 0.899185 160 38 13 255 
103 201 -43.6854 0.195351 -0.447319 0.872779 156 42 13 255 
103 202 -43.6854 0.149454 -0.617307 0.772396 156 42 13 255 
103 203 -41.9874 0.115208 -0.609867 0.784085 135 42 14 255 
103 204 -41.9874 0.0932044 -0.680385 0.726904 135 42 14 255 
103 205 -40.5623 0.103278 -0.787732 0.607299 113 39 12 255 
103 206 -39.4824 0.0729271 -0.799002 0.596889 108 39 12 255 
103 207 -37.1607 0.047818 -0.712008 0.700541 102 34 10 255 
103 208 -37.1607 0.0284892 -0.764971 0.643434 102 34 10 255 
103 209 -35.9938 -0.0708688 -0.569043 0.819248 109 34 10 255 
103 210 -35.2757 0.0163445 -0.397978 0.917249 123 38 11 255 
103 211 -34.6946 0.053387 -0.279658 0.958614 140 42 11 255 
103 212 -34.5952 0.0406015 -0.0709274 0.996655 158 51 14 255 
103 213 -34.5952 0.0376091 0.18722 0.981598 158 51 14 255 
103 214 -34.9496 0.0106608 0.12784 0.991738 172 59 16 255 
103 215 -34.9496 0.100141 0.0937283 0.990549 172 59 16 255 
103 216 -34.9496 0.151258 0.280406 0.947889 172 59 16 255 
103 217 -35.7271 0.172456 0.211262 0.962095 168 63 18 255 
103 218 -35.7271 0.0754215 0 0.997152 168 63 18 255 
103 219 -35.7271 0.191382 0.139337 0.971575 168 63 18 255 
103 220 -36.3233 0.227509 0.219015 0.948827 157 61 17 255 
103 221 -36.3233 0.146868 0.140554 0.979119 157 61 17 255 
103 222 -36.3233 0.140839 0.110136 0.983887 157 61 17 255 
103 223 -36.3693 0.10432 0.0905735 0.990411 150 62 17 255 
103 224 -36.3693 0.165625 0.116992 0.979225 150 62 17 255 
103 225 -36.6965 0.0936725 0.0657159 0.993432 154 62 18 255 
103 226 -36.6965 0.0822913 0.0212794 0.996381 154 62 18 255 
103 227 -36.6965 0.12232 0.0601724 0.990665 154 62 18 255 
103 228 -36.7181 0.122446 -0.0462609 0.991396 148 59 18 255 
103 229 -36.7181 0.0597059 -0.0256113 0.997887 148 59 18 255 
103 230 -36.7181 0.0380763 -0.0536689 0.997833 148 59 18 255 
103 231 -36.4995 0.110788 -0.0715404 0.991266 139 59 17 255 
103 232 -36.4995 0.155554 -0.0892741 0.983785 139 59 17 255 
103 233 -36.247 0.128976 -0.126768 0.983512 137 58 18 255 
103 234 -36.247 0.0771459 -0.0698583 0.994569 137 58 18 255 
103 235 -36.247 0.0331623 -0.179102 0.983272 137 58 18 255 
103 236 -35.7606 0.0324286 -0.186645 0.981892 131 58 18 255 
103 237 -35.7606 -0.0087867 -0.219758 0.975515 131 58 18 255 
103 238 -35.7606 0.0133403 -0.256797 0.966373 131 58 18 255 
103 239 -35.1581 0.128043 -0.431391 0.893032 133 57 17 255 
103 240 -34.173 0.179369 -0.370316 0.911424 114 53 17 255 
103 241 -34.173 0.146639 -0.161019 0.975997 114 53 17 255 
103 242 -34.173 0.0272746 -0.453685 0.890745 114 53 17 255 
103 243 -32.9623 0.12297 -0.648558 0.751166 112 49 15 255 
104 25 -52.6243 -0.0706405 0.396357 0.915375 179 72 21 255 
104 26 -52.6243 -0.128769 0.296914 0.946182 179 72 21 255 
104 27 -53.1937 -0.203961 0.288456 0.935517 187 75 22 255 
104 28 -53.1937 -0.143281 0.431845 0.890495 187 75 22 255 
104 29 -54.0228 -0.105188 0.288543 0.951671 195 77 23 255 
104 30 -54.0228 -0.154992 0.0196217 0.987721 195 77 23 255 
104 31 -54.0228 -0.10432 0.0199271 0.994344 195 77 23 255 
104 32 -54.0244 -0.0935184 0.303886 0.948107 195 78 23 255 
104 33 -54.4189 -0.125996 0.210198 0.969506 195 78 23 255 
104 34 -54.4189 -0.143161 0.0703879 0.987193 195 78 23 255 
104 35 -54.6301 -0.151422 0.110537 0.982269 201 78 24 255 
104 36 -54.6301 -0.115713 0.0428092 0.99236 201 78 24 255 
104 37 -54.8952 -0.162423 0.00684103 0.986698 197 80 25 255 
104 38 -54.8952 -0.172249 0.0995321 0.980012 197 80 25 255 
104 39 -55.0543 -0.157812 0.0783776 0.984354 196 76 23 255 
104 40 -55.0543 -0.0959446 0.0187564 0.99521 196 76 23 255 
104 41 -55.0016 -0.118019 -0.0512053 0.99169 197 75 23 255 
104 42 -55.0016 -0.0693535 -0.17312 0.982456 197 75 23 255 
104 43 -54.5863 -0.10523 -0.23004 0.967475 197 76 23 255 
104 44 -54.5868 -0.1392 -0.0940506 0.985788 189 70 23 255 
104 45 -54.5868 -0.22076 -0.201083 0.954374 189 70 23 255 
104 46 -54.0246 -0.133985 -0.26185 0.955763 182 65 21 255 
104 47 -54.0246 -0.0431248 -0.306487 0.950897 182 65 21 255 
104 48 -53.3193 0.0307306 -0.275284 0.960872 179 62 20 255 
104 49 -53.3193 -0.0716071 -0.442646 0.893833 179 62 20 255 
104 50 -52.4497 0.010887 -0.446665 0.894635 174 56 18 255 
104 51 -52.4497 -0.0137617 -0.40193 0.915567 174 56 18 255 
104 52 -51.5345 0.0425303 -0.583047 0.811324 172 59 19 255 
104 53 -50.7018 0.0930971 -0.396613 0.913253 167 57 18 255 
104 54 -50.7018 -0.011608 -0.61515 0.788325 167 57 18 255 
104 55 -49.6174 0.108782 -0.61741 0.779084 165 55 17 255 
104 56 -49.6174 0.0604912 -0.459227 0.886257 165 55 17 255 
104 57 -48.401 0.207835 -0.537536 0.817227 164 56 17 255 
104 58 -48.401 0.183567 -0.52281 0.83245 164 56 17 255 
104 59 -47.5199 0.116575 -0.428257 0.896106 160 53 17 255 
104 60 -46.7262 0.131817 -0.405061 0.904738 162 54 17 255 
104 61 -46.7262 0.0191528 -0.672921 0.739467 162 54 17 255 
104 62 -45.6056 0.0520292 -0.427568 0.902485 168 57 18 255 
104 63 -45.6056 0.0987608 0.00573108 0.995095 168 57 18 255 
104 64 -45.6056 0.403048 -0.441253 0.801778 168 57 18 255 
104 65 -44.1303 0.302365 -0.288111 0.908607 180 66 20 255 
104 66 -44.3002 0.309423 -0.190595 0.931628 185 68 20 255 
104 67 -44.3002 0.233942 -0.229513 0.944772 185 68 20 255 
104 68 -43.4994 0.287149 -0.351061 0.891236 189 67 20 255 
104 69 -43.4994 0.318026 -0.200912 0.926549 189 67 20 255 
104 70 -42.9628 0.431322 -0.0697706 0.899496 194 71 22 255 
104 71 -42.9628 0.487761 -0.130711 0.863136 194 71 22 255 
104 72 -42.9628 0.480919 -0.0276554 0.876329 194 71 22 255 
104 73 -42.8686 0.5707 -0.0562051 0.819233 194 72 21 255 
104 74 -42.8686 0.579019 -0.0539131 0.81353 194 72 21 255 
104 75 -43.4377 0.433644 0.165176 0.885816 195 75 22 255 
104 76 -43.527 0.565748 0.0554605 0.822711 197 79 23 255 
104 77 -43.527 0.431911 -0.121775 0.893658 197 79 23 255 
104 78 -42.7602 0.57619 0.172393 0.798928 197 76 22 255 
104 79 -44.5164 0.585864 0.345959 0.732855 207 84 24 255 
104 80 -44.5164 0.474775 0.164525 0.864592 207 84 24 255 
104 81 -43.4764 0.588812 0.176259 0.788818 205 84 24 255 
104 82 -44.7099 0.636786 0.264783 0.724151 217 89 26 255 
104 83 -44.7099 0.644572 0.431822 0.630918 217 89 26 255 
104 84 -46.5871 0.664762 0.362962 0.652955 215 93 25 255 
104 85 -46.5871 0.654219 0.29788 0.695173 215 93 25 255 
104 86 -46.5871 0.732606 0.250008 0.633075 215 93 25 255 
104 87 -46.9166 0.740762 0.244862 0.625552 209 91 25 255 
104 88 -48.1078 0.590202 0.405791 0.697851 211 89 26 255 
104 89 -48.1078 0.633143 0.314563 0.707234 211 89 26 255 
104 90 -48.1906 0.565986 0.301009 0.767498 208 84 25 255 
104 91 -50.2066 0.677208 0.37156 0.635085 204 85 26 255 
104 92 -50.2066 0.706379 0.42094 0.569069 204 85 26 255 
104 93 -50.2066 0.624329 0.303893 0.719627 204 85 26 255 
104 94 -50.761 0.66207 0.250688 0.706271 203 87 26 255 
104 95 -50.761 0.612387 0.353329 0.707206 203 87 26 255 
104 96 -52.4635 0.61213 0.434413 0.660744 203 85 25 255 
104 97 -52.4635 0.602608 0.390799 0.695801 203 85 25 255 
104 98 -53.8294 0.580093 0.421916 0.696764 202 89 26 255 
104 99 -53.8294 0.559109 0.464786 0.686565 202 89 26 255 
104 100 -54.9394 0.575323 0.416174 0.704132 200 86 24 255 
104 101 -54.9394 0.61657 0.360096 0.700123 200 86 24 255 
104 102 -54.9394 0.602254 0.3539 0.715573 200 86 24 255 
104 103 -56.1335 0.567949 0.200939 0.798159 195 79 22 255 
104 104 -56.1335 0.539799 0.287733 0.791093 195 79 22 255 
104 105 -56.1335 0.670126 0.478187 0.567688 195 79 22 255 
104 106 -58.0887 0.559214 0.502729 0.6592 192 80 22 255 
104 107 -57.7387 0.530106 0.560522 0.636241 191 79 22 255 
104 108 -58.9308 0.55283 0.324141 0.767666 191 78 21 255 
104 109 -58.9308 0.642852 0.347961 0.682396 191 78 21 255 
104 110 -60.4158 0.611941 0.314706 0.725595 190 75 22 255 
104 111 -59.0809 0.572023 0.252952 0.78026 188 76 21 255 
104 112 -60.6097 0.534857 0.282511 0.796314 189 74 22 255 
104 113 -60.6097 0.368944 0.626478 0.68659 189 74 22 255 
104 114 -62.126 0.606001 0.453028 0.653856 186 73 21 255 
104 115 -62.126 0.67107 0.364668 0.645509 186 73 21 255 
104 116 -62.126 0.691873 0.444832 0.568714 186 73 21 255 
104 117 -64.1231 0.589694 0.555691 0.586061 180 68 19 255 
104 118 -64.1231 0.553239 0.338514 0.761141 180 68 19 255 
